# .PCD v0.7 - Point Cloud Data file format
VERSION 0.7
FIELDS x y z intensity
SIZE 4 4 4 4
TYPE F F F F
COUNT 1 1 1 1
WIDTH 1380
HEIGHT 1
VIEWPOINT 0 0 0 1 0 0 0
POINTS 1380
DATA ascii
36.715843 4.7170615 -10.457823 14.2
36.918964 4.7224989 -10.512201 14
21.758511 4.8510284 -10.457353 13.5
21.827448 4.9953117 -10.509242 15
31.493591 4.9242306 -10.580863 14
31.673988 4.9034448 -10.594299 14
33.78793 4.9958181 -10.572634 14
36.51754 4.8460555 -10.403385 15
21.866413 5.1079345 -10.4331 13
31.557076 5.1960163 -10.416191 15
35.5247 5.0747719 -10.515261 15
36.521652 5.1533818 -10.552787 15
36.689682 5.0132799 -10.474354 12
45.10508 5.1784306 -10.515129 13
75.442749 5.1490827 -10.49967 11
21.884123 5.2516661 -10.419292 13.5
36.012474 5.3043737 -10.493673 12
45.096088 5.2664666 -10.475008 11.8
45.219677 5.2730112 -10.492525 12.5
34.014137 5.4632177 -10.476046 15
45.087433 5.4763341 -10.408505 10.666667
95.18573 5.5648847 -10.511551 7
45.121147 5.6486816 -10.470367 14
45.230312 5.7265873 -10.410528 13
81.510071 5.7665977 -10.566503 11
22.014072 5.9863749 -10.412067 15
45.048344 5.8059607 -10.516826 13
45.285553 5.8224392 -10.554461 13.5
81.346451 5.9126205 -10.512977 11.2
81.463486 5.9443107 -10.531081 11
81.721207 5.8751101 -10.559963 10
95.243347 5.9388494 -10.549506 8
21.934448 6.120882 -10.410365 15
22.008392 6.0569592 -10.457541 13
81.124252 6.1447244 -10.552015 11.8
81.369659 6.0288272 -10.548943 12
81.449722 6.0407858 -10.499638 10.25
36.478493 6.2306843 -10.538151 14
45.052299 6.3564596 -10.525415 14
45.584621 6.3958445 -10.446911 14
45.622082 6.3498898 -10.413448 14
81.090401 6.2895212 -10.478719 11.7
81.350403 6.2946301 -10.40654 11
81.46727 6.2622471 -10.442657 12
36.568291 6.5403633 -10.401889 15
45.116787 6.4258337 -10.492135 13
45.286453 6.4587593 -10.415794 13
45.516609 6.4137506 -10.443269 13
81.101295 6.5021925 -10.504605 12.8
81.274536 6.5558448 -10.508689 12
36.616161 6.7122364 -10.541382 15
81.112007 6.6997633 -10.496925 12.5
81.234642 6.6722546 -10.590759 10
45.538719 6.9411345 -10.421139 15
81.086395 6.8838348 -10.504335 13.333333
81.223907 6.891818 -10.499016 14
45.357887 7.1941776 -10.410025 13
81.091644 7.0899644 -10.533295 12.6
81.288864 7.057313 -10.482784 10
84.986488 7.0394773 -10.565722 15
85.050636 7.1031251 -10.488422 15
81.093315 7.367311 -10.495621 11.8
81.12233 7.4877729 -10.465281 13.5
81.134979 7.6999321 -10.507383 13
80.973969 7.902204 -10.545403 13
81.048096 7.881083 -10.517557 11.5
81.260849 7.9361725 -10.432783 12
81.115715 8.0961313 -10.493755 11.666667
81.316162 8.2568026 -10.571983 11
81.151413 8.4310741 -10.492155 11.5
81.123619 8.7103529 -10.549781 12.666667
80.962166 8.9836922 -10.560967 12
81.223358 8.8567009 -10.513633 13
90.180099 8.8703728 -10.58172 13
80.889488 9.1114006 -10.551696 11
80.885612 9.2088976 -10.520475 14
99.31514 9.3103123 -10.542772 13
99.286003 9.4468727 -10.541132 15
81.141418 9.7309256 -10.506076 13
98.965996 9.7775383 -10.426237 14
81.058655 9.9573879 -10.489021 14
81.080925 10.113472 -10.549608 12
81.250893 10.056038 -10.408391 13
81.090836 10.32421 -10.477101 15
81.091476 10.422207 -10.596377 13
81.175293 11.319977 -10.559452 13
81.26799 12.254551 -10.561193 15
39.450512 17.371941 -10.439344 11
7.1142845 -3.3157444 -10.20949 10
6.9466476 -3.0521221 -10.245956 10.5
7.129087 -3.0614882 -10.257703 10
7.3283877 -3.0579205 -10.261959 10
6.9073629 -2.9065895 -10.237132 10.888889
7.0491567 -2.9210777 -10.279007 10.666667
6.7230005 -2.6444831 -10.283549 12
6.8806915 -2.7425764 -10.29244 11
7.1145821 -2.711134 -10.3741 11
6.4302053 -2.401525 -10.205208 13
6.7255993 -2.5274439 -10.293675 11.727273
6.8366756 -2.5047104 -10.346863 11.333333
6.4890647 -2.3006868 -10.266903 13
6.8166494 -2.3855534 -10.37036 12
6.4684381 -2.152997 -10.311796 12.5
6.0952744 -1.8823272 -10.233535 14
5.7621107 -1.7518325 -10.360692 13
29.874336 2.554642 -10.26469 10
36.489082 3.7042942 -10.263621 10
63.712547 3.7932923 -10.391758 7
13.449606 3.9573123 -10.379983 15
35.42485 3.9404163 -10.282255 13
35.670345 3.880867 -10.208019 12
36.119377 3.9693165 -10.328494 10
36.203724 3.9507217 -10.388052 12
36.520325 3.8776898 -10.332897 11.25
44.076733 3.9736323 -10.22049 13
13.37886 4.1125154 -10.282116 15
13.471859 4.1031899 -10.374872 15
35.853844 4.0453186 -10.28137 13
36.218021 4.0961418 -10.244825 12
36.56646 4.0223875 -10.272606 13
36.697601 4.0781479 -10.377893 13.8
36.903725 4.1580935 -10.326545 13
44.097218 4.0832191 -10.32829 12.666667
44.228718 4.1257095 -10.304665 13
63.677025 4.0370827 -10.339088 8
35.456928 4.3230209 -10.366022 14
35.671116 4.2643104 -10.352424 13
35.885136 4.3216772 -10.209791 11
36.103096 4.3451481 -10.299305 12
36.273762 4.2940078 -10.268006 13.25
36.652138 4.2754898 -10.326982 13.5
36.867199 4.2718821 -10.372377 11
37.080498 4.2599006 -10.394397 14
44.151009 4.3528614 -10.203885 14
44.204754 4.2960329 -10.243252 13
63.578167 4.2561278 -10.343156 9
63.668152 4.3284178 -10.321285 9
31.630098 4.5512838 -10.396649 15
31.923458 4.5333772 -10.387724 13
34.130768 4.4857054 -10.217053 12
35.315308 4.5707059 -10.372782 14
35.952187 4.4100981 -10.237749 12
36.494888 4.5130095 -10.308123 15
36.648769 4.5239139 -10.382552 15
36.92569 4.5060754 -10.307171 14
37.022095 4.4941978 -10.357951 15
44.066109 4.4943209 -10.279087 14.5
63.609112 4.497293 -10.264744 10
76.438942 4.5348868 -10.274317 8
35.526279 4.6718402 -10.297063 14.333333
35.62048 4.7282009 -10.226254 14
36.254326 4.6476498 -10.2657 15
36.512299 4.6822672 -10.253794 14.5
36.71196 4.7343202 -10.348008 13.5
36.812885 4.6281714 -10.365061 15
44.118107 4.6770263 -10.314385 14.666667
76.471992 4.7885752 -10.350956 9
77.962952 4.7408013 -10.370021 8
21.831633 4.9928465 -10.380846 14
31.416834 4.814992 -10.38617 15
31.691805 4.9055386 -10.226188 14
35.619747 4.9953227 -10.316603 15
35.832886 4.9598351 -10.222483 12
36.648277 4.8395481 -10.21361 12.5
77.970459 4.9437695 -10.304694 9
21.776739 5.1383371 -10.36613 15
21.843695 5.132791 -10.393836 13
35.672832 5.047956 -10.381173 15
36.147846 5.080678 -10.295535 12
36.574394 5.0544186 -10.329289 15
45.001209 5.1129656 -10.205717 13
77.888535 5.1552019 -10.379145 10
21.85359 5.294085 -10.371092 14.333333
45.105919 5.2741094 -10.270203 10
95.167908 5.3148508 -10.29966 6
21.933023 5.5242558 -10.306576 14.666667
33.96347 5.4289804 -10.364254 15
45.045391 5.418746 -10.321319 11
21.954706 5.6366706 -10.294644 13.666667
45.361031 5.7858925 -10.20824 13
95.146217 5.7108798 -10.322729 7
21.931841 5.9092951 -10.357904 14
45.361298 5.8350182 -10.265364 12.5
82.467667 5.8344498 -10.283118 9
21.996803 6.0170727 -10.378386 15
44.995384 6.0854225 -10.234229 11
45.05225 6.1050715 -10.282279 11
45.274078 6.0722642 -10.316569 14
81.399567 6.1196232 -10.383329 11
22.081499 6.3984947 -10.367719 14
44.943478 6.2260056 -10.295885 12
81.156021 6.2535281 -10.349088 10.333333
81.325356 6.3304625 -10.344996 10.5
81.470238 6.2768035 -10.39386 11
45.442745 6.4347363 -10.343525 11
81.305191 6.4863448 -10.324039 11.833333
81.445023 6.5708723 -10.29088 10
22.175055 6.6318216 -10.311475 15
36.654587 6.7562399 -10.33252 15
45.23259 6.7617931 -10.219137 13
81.06366 6.6811676 -10.385071 12
81.290733 6.6802316 -10.314158 12
22.198183 6.8257446 -10.388037 14
45.339783 6.9100156 -10.215195 13.75
81.179832 6.8695679 -10.305484 15
81.280029 6.8660364 -10.210026 13.5
82.353203 6.9582005 -10.237398 11
45.32774 7.100431 -10.251994 13.4
81.142632 7.1017265 -10.357548 12.25
81.25145 7.1000881 -10.326232 11.75
22.359831 7.2290115 -10.305606 15
81.268585 7.3010526 -10.297776 13.5
81.455933 7.2347231 -10.203558 10
81.195946 7.556735 -10.329578 14
81.249657 7.5969124 -10.374526 14
81.453873 7.4368653 -10.218063 11
81.263176 7.613184 -10.352395 11
90.624481 7.7901936 -10.298684 12
45.354511 7.9647455 -10.361375 14
81.143013 7.9886799 -10.360053 11
81.330658 7.8570924 -10.345963 11.666667
90.298988 7.898756 -10.39221 12
81.089485 8.1177025 -10.382955 12
81.275612 8.0534601 -10.330618 14
81.175323 8.2583303 -10.396826 13
81.354904 8.3761139 -10.224618 11
81.146408 8.5169067 -10.395937 12
81.287476 8.5744781 -10.296261 13
81.404182 8.7372017 -10.228979 12
81.151443 8.8783722 -10.282167 13
81.249809 9.1297722 -10.317977 12
81.112343 9.3366327 -10.321151 12.333333
81.291946 9.2247667 -10.371423 14
81.052383 9.5181026 -10.27656 14
90.29245 9.4259644 -10.284203 15
81.124214 9.6318359 -10.251525 14
81.073219 9.8710899 -10.304453 15
81.058784 10.159374 -10.215662 15
81.285919 10.196577 -10.348173 13.5
81.199265 10.396688 -10.272328 15
81.240768 10.336918 -10.325953 13
81.108971 10.423854 -10.378574 15
81.366371 10.40192 -10.357204 13
81.571854 10.722124 -10.300383 13
81.241585 11.186763 -10.391789 14
40.034004 16.70256 -10.271737 10
7.295392 -3.6406541 -10.040724 9
7.3217239 -3.4793212 -10.038464 9
7.4563408 -3.5243816 -10.044071 9
7.1162586 -3.2764585 -10.110723 10
7.2651501 -3.328301 -10.105817 9.5
6.9836516 -3.0571792 -10.1704 10.333333
7.1104865 -3.1355305 -10.128675 10.666667
6.7962675 -2.8126078 -10.041691 12
7.064188 -2.9142945 -10.15334 10.5
6.5537562 -2.4149599 -10.155534 13
6.713408 -2.4790726 -10.174652 11.5
6.2898083 -2.2132454 -10.11831 13
6.518167 -2.3157039 -10.172441 12.666667
6.3447719 -2.1626198 -10.192749 13
21.310493 1.4364839 -10.119078 8
21.349258 1.7748315 -10.101906 9
31.87866 3.1161804 -10.031589 10
31.874655 3.3656969 -10.06997 11
31.908344 3.4107308 -10.045868 12
31.785736 3.7334003 -10.032855 12
31.907988 3.730942 -10.018821 12.666667
55.753262 3.6061153 -10.033237 8
55.80759 3.7147806 -10.04998 8
31.918726 3.9383187 -10.078959 12
32.182388 3.9623604 -10.014302 14
55.762135 3.8619864 -10.01395 9
13.399646 4.1913791 -10.196226 14
32.014221 4.071404 -10.11728 13
35.80909 4.1540771 -10.186968 13
55.81675 4.0076795 -10.088223 9
33.15794 4.3584814 -10.015253 12
35.516205 4.2867632 -10.072552 13
36.027508 4.3937778 -10.092555 14
36.631432 4.274035 -10.172137 13.5
44.14534 4.3133192 -10.18077 14
76.610229 4.3736081 -10.169102 7
76.954376 4.2417474 -10.015724 6
36.073616 4.5310435 -10.120235 13
36.345203 4.5806584 -10.158026 15
63.591496 4.51545 -10.193409 10
76.621803 4.5680313 -10.063009 8
76.85038 4.5812426 -10.035045 8
82.289368 4.4267297 -10.079291 5
33.301033 4.7797909 -10.042431 12
36.158154 4.7312989 -10.12771 13.666667
76.573746 4.7596369 -10.072983 9
76.659332 4.6074657 -10.100063 8
76.821892 4.7741523 -10.052925 9
82.358231 4.7065811 -10.086375 6
33.239037 4.8998203 -10.06899 13
35.953728 4.834897 -10.156065 12.5
36.469463 4.8204474 -10.181549 12
36.672729 4.8749237 -10.172801 15
76.551941 4.8544683 -10.136625 9
76.937485 4.8269205 -10.01297 9
82.354996 4.8932214 -10.03275 7
33.133522 5.1444788 -10.066126 12
35.767487 5.0847712 -10.175542 12
36.100132 5.1322136 -10.159262 15
45.037899 5.1344304 -10.144 10
76.838951 5.1637945 -10.029428 11
82.328636 5.0126839 -10.083042 8
82.409203 5.0067339 -10.055098 7
33.181679 5.3761916 -10.003884 13
35.951996 5.3674192 -10.15667 12.5
36.081802 5.3266835 -10.080027 14
45.113823 5.2215095 -10.112692 10
45.223816 5.3983788 -10.006926 11
82.358566 5.3080935 -10.001232 9
95.180634 5.2703638 -10.028341 6
95.202805 5.2719755 -10.146874 6
45.03022 5.4617796 -10.023929 11
35.624969 5.7042003 -10.161007 13
45.297173 5.7854176 -10.013891 14
95.154869 5.6726899 -10.141193 7
45.087303 5.9862499 -10.163164 11
45.25856 5.9082055 -10.034961 11
81.625366 5.9224663 -10.00919 9
95.254272 5.9603691 -10.080666 8
44.948669 6.1303611 -10.032454 11.5
45.01025 6.1081758 -10.169722 11.5
45.214031 6.0318804 -10.171819 11
81.295815 6.0939102 -10.042594 12.714286
95.324661 6.0920887 -10.130432 8
44.759094 6.2566576 -10.059507 11
81.11171 6.3586664 -10.010513 13
81.264694 6.3179893 -10.137744 9
45.289158 6.4608068 -10.197617 14
81.429977 6.5067124 -10.121293 10
45.215218 6.7712379 -10.121008 12
81.394104 6.6411533 -10.198947 10
81.423172 6.6631975 -10.188295 10
44.946148 6.9062209 -10.06953 12.333333
45.184433 6.965631 -10.139799 12
45.277508 6.9552484 -10.154395 13
81.236839 6.9661779 -10.002604 14
45.117203 7.0269313 -10.148915 12
81.36795 7.1445169 -10.074039 10.5
81.482254 7.1233912 -10.123962 10
45.262016 7.3156767 -10.147188 13
81.357422 7.2966537 -10.113338 11.75
81.454933 7.2806091 -10.120012 10.6
45.250874 7.4620633 -10.103573 14
45.456177 7.5780025 -10.138557 14.666667
81.329117 7.4546585 -10.177668 15
45.33271 7.6896758 -10.149298 14
45.444908 7.6106267 -10.151619 15
45.319588 7.9033136 -10.078365 14.5
81.498314 7.9210548 -10.037361 11.5
81.522354 8.1740551 -10.120914 11
81.624123 8.1297188 -10.150489 12
90.768967 8.2709208 -10.103146 13
81.321823 8.8843174 -10.137886 13
81.487289 9.083004 -10.186932 12
81.188309 9.2933731 -10.19186 13
81.297318 9.3817167 -10.162325 12
81.133003 9.4993553 -10.121789 15
81.304939 9.5031996 -10.016777 13
81.114838 9.916914 -10.134386 14
81.387482 10.679633 -10.198671 14
81.415482 10.901378 -10.194084 14
81.513351 11.239427 -10.162539 14
81.446304 11.632751 -10.194942 15
81.283981 11.828816 -10.044428 15
7.9042869 -4.286046 -9.8198156 7
7.5455713 -4.0247898 -9.9306984 8
7.7078066 -4.0580931 -9.8470602 7.25
7.8707519 -4.1740737 -9.815773 7
7.5213418 -3.896744 -9.8829308 8.083333
7.6372671 -3.8747299 -9.8872766 8
7.5082583 -3.745955 -9.9572306 8.2857141
7.6632009 -3.7800283 -9.9459143 8
7.3151045 -3.5610914 -9.9861574 9
7.2158442 -3.1740236 -9.8230333 11
13.010995 0.098713398 -9.8031673 8
12.905556 0.44512558 -9.832243 9
13.178413 0.53983593 -9.8277159 9
13.054352 0.68702126 -9.8427248 10.5
12.826772 0.88235354 -9.8129482 11
12.508444 1.0883142 -9.9022102 13
12.680359 1.1895447 -9.9244184 11
13.042878 1.0962811 -9.844408 11
12.693785 1.2316989 -9.8383331 12
-7.6741772 1.5432956 -9.914876 10
31.813625 2.953491 -9.8396311 10
32.058617 3.1171281 -9.8177376 10
31.890564 3.321079 -9.8951197 11.666667
32.079727 3.2330976 -9.8361425 12
31.908726 3.5263472 -9.8930416 13
32.072685 3.5126381 -9.9144764 13
32.266327 3.5712714 -9.8273468 12
31.904013 3.6620278 -9.8968935 13
32.118973 3.739404 -9.9077063 14
32.323395 3.799113 -9.843895 11
55.784294 3.6189985 -9.9850311 8
59.326576 3.923847 -9.8468657 9
31.720528 4.0997577 -9.9645786 13
31.829943 4.0923929 -9.8815794 14
59.332565 4.1261907 -9.834981 9.833333
31.816376 4.3149409 -9.9813585 13
32.788868 4.3962154 -9.8944855 11
33.128727 4.344183 -9.9307213 12
35.991665 4.3174372 -9.9673138 12
55.544525 4.3374801 -9.8784323 10
13.309856 4.4569263 -9.8222704 13
33.160591 4.488482 -9.9358463 13
59.372135 4.41821 -9.8733978 11
76.780396 4.428359 -9.9453583 7
82.23848 4.5650129 -9.9660263 6
13.363249 4.6735611 -9.9382153 14.5
33.091133 4.6999307 -9.9129553 11
33.296967 4.726068 -9.9842939 14
45.003677 4.6006269 -9.8348341 11
59.372257 4.6803603 -9.917655 12
76.73185 4.6152973 -9.8786469 8
76.856796 4.6200442 -9.8217716 8
77.14666 4.6316171 -9.8625641 8
77.475281 4.6479759 -9.8287086 8
82.142365 4.6420903 -9.9738665 6
82.238426 4.6840215 -9.9674025 6
33.104794 4.8808141 -9.8914652 12
34.373989 4.9701247 -9.9909372 13
36.04776 4.8896303 -9.9350166 15
36.215187 4.9297533 -9.9411736 14
45.109421 4.8044181 -9.8106194 13
76.560432 4.9442964 -9.9789734 10
76.731163 4.8089328 -9.9317198 9
76.826401 4.9634109 -9.9930887 10
77.133759 4.8239441 -9.8482628 9
77.473656 4.8484735 -9.8536463 9
82.16243 4.9887848 -9.9326706 7.5
82.245667 4.901185 -9.9278107 7
33.129868 5.0710654 -9.900692 14
33.292255 5.093112 -9.876421 13.5
35.835075 5.0781207 -9.9279728 15
45.159569 5.0502138 -9.8509312 10.6
45.251873 5.1350508 -9.9008169 11.5
76.840828 5.0104656 -9.9469137 10
77.183182 5.0267925 -9.8907318 10
77.466721 5.0563769 -9.9272232 10
82.156548 5.1244836 -9.9174633 8.166667
82.323006 5.1064539 -9.950491 8
13.346991 5.2670598 -9.9286499 15
45.171059 5.3157992 -9.9474134 11
45.25095 5.2920718 -9.9044256 12
82.169716 5.3283825 -9.8812895 9.2222223
82.312424 5.3170447 -9.8982286 9.1999998
82.415215 5.2093534 -9.9809418 8
95.1717 5.2683344 -9.9022598 6
95.20298 5.2305527 -9.9803228 6
33.131256 5.4366245 -9.8644066 12
33.249706 5.5128913 -9.8905888 14
45.250278 5.4436922 -9.8960133 12.5
82.187805 5.5689836 -9.8528757 10.333333
82.317436 5.5248671 -9.8475847 10.058824
82.407448 5.4118462 -9.9501095 9
95.174042 5.5702629 -9.9132195 7
32.918983 5.6504564 -9.8774118 12
45.199444 5.7362204 -9.9312153 11
45.316311 5.7004261 -9.8767385 12.5
82.191589 5.6366777 -9.8518772 11
82.309166 5.7074251 -9.8576183 10.8
33.121376 5.9816384 -9.999424 14
45.150352 5.9922252 -9.8022099 11
45.280239 5.9229178 -9.9500465 12.666667
95.277161 5.9601493 -9.948266 8
33.122631 6.0110006 -9.9706211 15
44.773026 6.1910253 -9.8800459 12
45.053185 6.0747108 -9.8821287 11.4
81.184738 6.1775045 -9.9645758 13
81.27272 6.1666074 -9.9189491 11.75
82.352547 6.0131917 -9.8196545 10
95.341888 6.0825715 -9.9849358 8
33.245041 6.3552332 -9.9267616 14
33.411953 6.3521566 -9.9466982 13
81.124222 6.3477535 -9.930438 14
81.222031 6.2752504 -9.9280262 12.75
81.135643 6.4734554 -9.8479795 14.166667
81.239296 6.467082 -9.8430338 9.5
44.957489 6.7439513 -9.9357748 12.5
81.154526 6.6682248 -9.9546309 14.285714
81.305099 6.608449 -9.8035765 10
44.951515 6.9250736 -9.9823494 12
45.070175 6.9968748 -9.8347702 13
81.251663 6.9754343 -9.9808683 15
81.433533 6.986948 -9.844223 11
44.938782 7.0899496 -9.9523468 14
45.120869 7.1168242 -9.9078932 14
81.263535 7.0078144 -9.8235111 10
81.419952 7.1886101 -9.9967966 11
45.532829 7.5635338 -9.9087095 14
90.023407 7.7535915 -9.9653263 11
44.925724 7.8162766 -9.9023714 14
45.288155 7.8257127 -9.822876 13
81.480278 7.9300442 -9.9846716 12
81.529434 8.0785179 -9.8757458 11.5
90.147011 8.0181055 -9.8098755 13
45.090366 8.369503 -9.8481312 15
81.502426 8.5310154 -9.8503532 13
90.732758 8.731204 -9.83741 14
44.997971 8.9044333 -9.9504614 14
81.108139 9.1969147 -9.8285456 11
81.222427 9.5877419 -9.9292727 14
99.215042 9.5448637 -9.9999914 12
81.231377 9.7064009 -9.9854164 13
81.668365 11.457905 -9.9325275 14
81.626434 12.487835 -9.9932976 15
7.7428508 -4.2629924 -9.7014999 7.5
7.9072294 -4.3257074 -9.7050867 6.5
7.6499643 -4.1875162 -9.6158133 9
7.8135166 -4.1800876 -9.7296486 8
7.4822636 -3.4043355 -9.7563133 11
13.34216 -0.18313617 -9.6922512 9
13.107718 0.092546269 -9.7389088 8.5
13.289315 0.11306899 -9.6881561 8.666667
13.426636 0.10530591 -9.6222878 7.5
-7.991354 0.24775451 -9.7658653 8
12.880422 0.37437129 -9.7973509 9
13.036293 0.39282492 -9.7653246 11
13.332117 0.28698325 -9.7124748 8
13.407427 0.33470774 -9.7003021 8
-8.0010662 0.46037072 -9.6640749 8
13.071648 0.49153721 -9.615633 10
13.325479 0.49663177 -9.6506691 9
13.159953 0.671673 -9.7089415 9.333333
12.657875 0.82026935 -9.6669044 10
12.9508 0.90202463 -9.6651897 10
13.222631 0.86778164 -9.6016321 10
-8.0403194 1.0147899 -9.6255741 9
12.361397 1.1265264 -9.6041756 11
12.764492 1.18205 -9.7546368 11
-8.0006771 1.2675247 -9.7295532 9
12.450191 1.2249749 -9.6045198 11
-8.0540905 1.4989109 -9.6425257 9
12.154082 1.4597759 -9.7752991 12
12.513971 1.5911679 -9.6722383 12
12.001904 1.6772807 -9.7638912 14
12.802244 1.697605 -9.6393824 13
-8.0866528 2.0755754 -9.7102308 10
-8.0662708 2.2850447 -9.6696072 10
-8.0808792 2.5255105 -9.6110573 10
43.717953 2.6546936 -9.6269217 7.6666665
43.80159 2.6487994 -9.7752867 7
47.751579 2.7173598 -9.6379547 7
47.857433 2.6966898 -9.6214199 6.5
31.951748 2.8886051 -9.7288589 10
32.087933 2.9179127 -9.670989 10.333333
32.265186 2.9448738 -9.6938095 10.666667
32.490356 2.9957905 -9.6453543 11
43.84219 2.9550416 -9.757556 8
47.849545 2.8896675 -9.603425 8
51.8573 2.9200237 -9.779726 6
31.863455 3.0002062 -9.713047 11
32.111885 3.1113634 -9.7035675 10.25
32.283691 3.1499004 -9.7379913 11.5
47.711502 3.1426945 -9.6127033 9
47.837841 3.0304003 -9.6761847 8
51.755325 3.1343586 -9.7633266 8
51.834515 3.1031473 -9.7621241 7.1666665
-8.1137228 3.3357296 -9.6530151 11
32.161842 3.3670282 -9.7120209 12.5
32.238865 3.2983844 -9.6476831 11.666667
47.78249 3.3728926 -9.6565533 9
51.761719 3.3193448 -9.7355022 8.5
51.849773 3.3418312 -9.7393932 8
-8.2342796 3.5760863 -9.620574 11
31.942286 3.541389 -9.6536779 13
32.127117 3.4372199 -9.6869526 11.666667
32.242176 3.5065777 -9.705924 12.333333
47.796001 3.4276564 -9.6059322 9
51.717976 3.5105269 -9.7265825 9
51.828583 3.4994221 -9.7263985 8.833333
31.947502 3.7175074 -9.6210184 13
32.101448 3.791678 -9.603014 11
32.351215 3.6504631 -9.6639309 11
47.5938 3.754405 -9.607337 10
51.757187 3.7169869 -9.731637 9.666667
51.82967 3.6843987 -9.738061 9.25
59.390099 3.6176152 -9.7806101 8
31.99688 3.9438632 -9.7983589 14
32.053131 3.9125962 -9.7184715 13.5
32.948647 3.8511512 -9.6254826 10
33.096684 3.9601796 -9.6202621 11.5
41.880836 3.906394 -9.6494837 12
42.045399 3.9290483 -9.6729746 12.333333
51.798695 3.9335804 -9.7257996 10
51.844086 3.8343301 -9.7713737 10
32.768166 4.1063461 -9.7629032 11
33.025238 4.011755 -9.668808 11
41.58646 4.0103602 -9.6826897 12
42.012146 4.0378413 -9.6582556 13
47.719559 4.0017986 -9.6533127 11
59.275124 4.174602 -9.7860899 10
32.192818 4.3345008 -9.6558628 12
32.937466 4.2766762 -9.6835518 12.5
41.668545 4.2849021 -9.7294693 11.333333
41.802315 4.3415642 -9.7379332 11
59.306332 4.3736043 -9.7478571 10.857142
33.102783 4.4742827 -9.6399384 13
42.203697 4.5887036 -9.6261616 15
59.191101 4.5938697 -9.6391001 12
59.249245 4.5401196 -9.6565399 11.75
32.921051 4.670187 -9.6465511 14
33.087181 4.6638913 -9.626812 13
41.909744 4.6076651 -9.6580906 14
44.911144 4.6982107 -9.7082767 10.75
45.046776 4.7413893 -9.7872276 11.5
59.239079 4.6141047 -9.6555462 12
32.21595 4.8761654 -9.6239338 13
32.97459 4.8006382 -9.7378654 13
41.08102 4.8431287 -9.6673174 15
41.685558 4.8735733 -9.6721878 12
44.950481 4.8781509 -9.7076159 12.333333
45.143089 4.9088311 -9.7079535 10.5
13.487899 5.0946665 -9.6855736 14
44.939735 5.085978 -9.6458111 12
45.138569 5.0764089 -9.6915159 11.785714
45.231773 5.1281734 -9.7211666 12.25
32.883854 5.2303848 -9.6630039 14
44.953522 5.252212 -9.673562 10.333333
45.153954 5.327879 -9.6913795 13
45.260994 5.2139902 -9.7624798 13
82.157669 5.3929114 -9.7716064 8
82.258987 5.3397245 -9.7996197 8
95.230537 5.249918 -9.76124 6
45.103664 5.4839125 -9.6736584 12.75
45.248096 5.4941211 -9.667614 14.333333
82.168274 5.5594192 -9.6606054 9
82.324554 5.5534487 -9.7836609 10.25
95.232147 5.5825939 -9.6764774 7
45.105782 5.7336817 -9.7318153 13.5
45.337585 5.6933165 -9.6536293 14
82.152489 5.764616 -9.7303524 11
82.305054 5.7660656 -9.7556696 11.333333
32.530029 5.8059912 -9.7409458 13
45.112389 5.8065357 -9.7268887 13
45.2342 5.9174643 -9.6813374 14.4
81.407608 5.9622355 -9.7802925 9
82.177933 5.8577061 -9.7849388 12
82.294983 5.9064407 -9.7510977 11.75
95.32164 5.9502869 -9.7010689 8
44.926929 6.0744028 -9.693697 11
45.047989 6.0873818 -9.7775269 11
45.230743 6.1532636 -9.6714869 13.666667
82.191956 6.1880455 -9.7234344 14
82.276894 6.1038561 -9.7017212 12.142858
82.439903 6.0326796 -9.6535416 9
95.450417 6.0525618 -9.7164574 8
45.157001 6.2878604 -9.6977539 13
45.262539 6.2778726 -9.6670008 13.6
81.270874 6.2589846 -9.6562223 9
82.288979 6.2618713 -9.6497574 13.666667
95.384666 6.370255 -9.7085752 9
44.756969 6.400197 -9.667778 14
81.360794 6.4764214 -9.6409454 9
82.301048 6.45893 -9.6172333 14
95.366714 6.4234748 -9.6894016 9
96.503281 6.4938912 -9.6755209 9
81.361198 6.6687522 -9.7474165 10
81.492294 6.6376967 -9.6726856 10
82.324249 6.7217584 -9.6408043 12.5
32.498665 6.975636 -9.6198788 15
44.892605 6.9175653 -9.6878624 13.4
45.049889 6.899056 -9.6965942 12
44.939137 7.0707846 -9.6785717 12.5
45.012836 7.176363 -9.7718582 12
81.282959 7.041532 -9.7570934 14
81.479858 7.1305656 -9.6321974 11
44.861031 7.2173996 -9.6775179 12
81.067276 7.3394785 -9.6190834 15
81.233604 7.2058229 -9.7074413 11
45.337051 7.4165134 -9.6928272 14
45.443375 7.5243421 -9.7137651 15
45.352119 7.6240244 -9.7159214 13
81.158005 7.7358003 -9.6373119 12.5
89.904922 7.9295945 -9.7535324 12.5
90.193657 7.95434 -9.745966 12
90.226349 7.9847574 -9.6292048 11
90.139618 8.0693521 -9.6785278 12.5
90.320511 8.0271263 -9.7608137 13
45.163292 8.3402796 -9.6112041 15
81.283073 8.2585669 -9.6503849 14
90.216057 8.3958921 -9.7555008 14
90.089836 8.4209175 -9.6413612 12
90.238129 8.4756689 -9.6413193 14
44.819603 8.6206627 -9.6656971 15
81.203377 8.7748222 -9.6334181 15
81.185837 8.8534803 -9.6244135 11
90.171562 8.8700838 -9.620142 13
81.090775 9.056818 -9.6595116 14
90.030914 9.224659 -9.6712179 14
90.636124 9.2398129 -9.7880945 15
81.281906 9.9173727 -9.7990713 15
81.679337 10.430888 -9.7605953 13
8.0034294 -4.5984392 -9.4588833 8
13.36828 0.093762636 -9.5187826 8
13.443797 0.19174385 -9.5767088 8
12.975375 0.3536849 -9.5773029 9
13.11951 0.26882318 -9.5033865 9
13.504133 0.2008965 -9.5812893 8
12.868294 0.5212791 -9.5420609 9
13.108081 0.41023469 -9.4595852 9
13.278168 0.43109107 -9.5620346 9
13.067027 0.74621487 -9.4797163 10
12.736568 0.81587267 -9.4410515 10
13.221106 0.85129952 -9.567564 10
12.915796 1.3794191 -9.5042143 11
12.231599 1.5124148 -9.4459066 13
39.863621 2.2083623 -9.4240036 8
47.852314 2.5510769 -9.5868664 6
47.787094 2.7097597 -9.5786343 6
47.817581 2.786381 -9.5918283 7
31.978716 2.8496246 -9.4332438 11
32.122108 2.9764786 -9.4076796 10
32.276428 2.976366 -9.4519558 10.5
43.706894 2.8874102 -9.5698357 9
47.745617 2.9360125 -9.5868616 7
47.833614 2.8907204 -9.5736971 8
-8.1014576 3.1290026 -9.5719862 11
31.77178 3.1581435 -9.4662418 12
31.926033 3.1720769 -9.4413099 11.5
32.093376 3.1201916 -9.440402 11.4
32.241814 3.10251 -9.4869452 11
43.668869 3.1096611 -9.5663776 10
47.729309 3.101249 -9.5682859 8
47.816692 3.115479 -9.5647526 8.8000002
31.969505 3.2342277 -9.5184975 12
32.111469 3.2682602 -9.5178204 10.7
32.221416 3.296793 -9.5097647 12
43.742741 3.2904205 -9.4551325 10
47.752281 3.2916186 -9.5615788 9.2222223
32.086376 3.4759414 -9.4658337 11.833333
32.230759 3.408392 -9.5732889 13
47.737705 3.4678199 -9.5403194 9.818182
-8.1174831 3.6001277 -9.5599852 11
31.953007 3.6102576 -9.5726337 13
32.107315 3.7005849 -9.4623909 12.444445
32.321388 3.6403542 -9.5454559 12.25
32.427517 3.7565408 -9.4254999 13
32.887863 3.7047598 -9.5265808 10
33.049248 3.782181 -9.443059 11
47.594883 3.7074559 -9.5306597 11
47.704838 3.6668227 -9.5485125 10.428572
47.807262 3.6282732 -9.5568733 10.5
31.926767 3.9164732 -9.4877834 12.375
32.035622 3.8872333 -9.5403938 12
32.300789 3.8010998 -9.5603313 14
32.977943 3.8943 -9.4732084 11
41.732948 3.9496741 -9.5414906 12
41.844379 3.9154797 -9.557436 12
47.512703 3.8265491 -9.4462566 11
47.730858 3.8194294 -9.5838375 10.5
47.824677 3.8558378 -9.5247049 11.666667
31.953186 4.0306053 -9.4836092 12.666667
32.047939 4.0677252 -9.5183926 13.75
32.377785 4.0732603 -9.4406261 13.5
32.428471 4.1333523 -9.4066849 14
32.878712 4.0824852 -9.5563574 12
41.70266 4.0909452 -9.5670519 13
41.849434 4.1530881 -9.5270605 13.666667
42.089794 4.136488 -9.5246563 13.5
32.10881 4.3055191 -9.439579 14
32.436417 4.2350998 -9.4880648 13
32.928165 4.2606077 -9.5212555 11
33.002457 4.3422852 -9.4508886 11
41.692173 4.2448144 -9.5014038 11
41.876385 4.2539291 -9.5521421 12.666667
42.102646 4.2632394 -9.546422 13.4
32.301651 4.5185022 -9.4271574 13
32.885265 4.4920201 -9.5191231 12
41.886993 4.4922104 -9.5238981 14.6
42.090115 4.4625425 -9.5603666 15
44.996971 4.5135207 -9.432373 12
45.073727 4.5380855 -9.4554501 11.857142
32.120293 4.6408453 -9.4019718 11
32.765221 4.760745 -9.4106369 12
41.263802 4.635541 -9.5632229 12
41.531967 4.7360535 -9.4008274 14
41.97102 4.6403599 -9.5819092 15
44.973064 4.6454248 -9.5277977 10.5
45.061836 4.6762543 -9.504282 13
32.285046 4.9320469 -9.4406128 15
32.835838 4.886497 -9.5072689 13
41.491592 4.8311596 -9.5570469 12
45.083771 4.9190955 -9.488718 12.666667
89.132812 4.8668342 -9.4594717 6
32.907196 5.0410419 -9.4340258 12.75
41.038067 5.065577 -9.4028015 13
41.516819 5.1162181 -9.4033241 15
44.69109 5.1124053 -9.4317551 12.75
44.898853 5.1140566 -9.4910316 10.75
45.074944 5.081192 -9.4519472 12.428572
41.523335 5.3862667 -9.5821486 13
44.591595 5.2234421 -9.452857 12
44.705883 5.3731308 -9.4167042 11
44.97123 5.3047991 -9.4270077 15
45.092335 5.3073869 -9.4825287 13.285714
81.612007 5.2245264 -9.4855289 8
95.318024 5.2973218 -9.4846172 6
95.420654 5.294426 -9.4650698 6
95.690155 5.2740827 -9.4506979 6
96.032005 5.3785124 -9.417428 6
44.639893 5.4115262 -9.4381714 13
44.904873 5.5138845 -9.445529 14
45.144703 5.5053692 -9.4755869 12.5
45.231403 5.4235725 -9.5472746 15
95.288681 5.5624876 -9.4360943 7
95.416016 5.595027 -9.4182701 7
95.851112 5.4669986 -9.4324427 7
33.062584 5.6451426 -9.4432049 13
44.906097 5.7125311 -9.4626408 12.8
45.162823 5.7926955 -9.5445156 13
45.259254 5.6717367 -9.5223103 12.25
81.181931 5.70788 -9.4186687 9
81.613663 5.7047815 -9.4963608 12.5
82.586655 5.7238107 -9.4929466 12
82.755508 5.6781816 -9.4367542 11
82.920753 5.7970605 -9.5580702 11
95.317268 5.6606097 -9.44382 7
96.666229 5.7491317 -9.4035091 7
45.153553 5.8956399 -9.5004158 12.333333
45.266052 5.8571372 -9.5503855 15
82.597389 5.8113484 -9.4501247 12.5
82.749855 5.9185333 -9.4658051 11.6
82.843903 5.8671522 -9.4812698 10.8
95.354279 5.9471388 -9.5234318 8
95.465202 5.9685879 -9.4742985 8
95.66819 5.986208 -9.424161 8
95.863548 5.925909 -9.5415163 8
96.630409 5.9807682 -9.5118752 8
32.722107 6.0461502 -9.5474768 12
44.97718 6.098527 -9.5596867 11
45.098896 6.0737481 -9.5372 12.666667
81.273979 6.1212983 -9.4600649 12.5
82.307755 6.0519648 -9.537447 9.5
82.539932 6.0839334 -9.4316349 14
82.679268 6.1056089 -9.4498806 12.8
82.898506 6.147501 -9.4955559 12.777778
83.053658 6.1857963 -9.5291224 13
95.366371 6.0316191 -9.5403061 8
95.506561 6.0344892 -9.5150795 8
95.706581 6.0573363 -9.4560652 8
95.93409 6.0414295 -9.493268 8
96.045914 6.0141687 -9.5873833 8
96.273659 6.1031933 -9.5102043 8
96.536697 6.0972166 -9.5281076 8
44.980431 6.2546873 -9.4318171 13.5
45.053963 6.3204856 -9.5722504 12
81.179611 6.3089595 -9.4964838 12.333333
81.2528 6.2458253 -9.5169878 10.333333
81.414505 6.357336 -9.4499025 9
82.257309 6.3857923 -9.5943947 13
82.763718 6.39007 -9.4547272 14
82.900841 6.2733884 -9.4396181 13.25
83.075226 6.3071232 -9.4658794 13.5
44.732506 6.4625411 -9.5579567 13
44.870052 6.4487801 -9.504528 15
81.180183 6.5810771 -9.4500933 14.666667
81.232277 6.4722667 -9.4883871 12.666667
82.291367 6.4587679 -9.5579805 15
82.552162 6.4598894 -9.4900942 15
82.667946 6.458828 -9.4508905 14
82.818466 6.4651227 -9.4011602 15
95.75016 6.4019732 -9.4031544 9
96.225655 6.5763149 -9.4400625 9
81.41993 6.7076879 -9.5902309 11
82.24157 6.7203035 -9.5863085 14
82.5075 6.6428347 -9.4658546 14.5
82.703133 6.6561642 -9.4449348 15
33.36454 6.8077412 -9.56077 14
44.926105 6.8872604 -9.4555759 13.8
45.036957 6.9536796 -9.4485712 12.666667
81.081215 6.8407507 -9.4093857 15
82.251793 6.957129 -9.5153646 14.666667
45.089867 7.0061831 -9.4932127 14
81.185974 7.1343689 -9.5177441 11.5
82.297501 7.092679 -9.4655209 15
81.091942 7.3145256 -9.5186062 11
81.218361 7.2989945 -9.5630732 10.5
82.305794 7.2146797 -9.4023457 15
44.704655 7.4542103 -9.5371952 13.5
81.126259 7.4208889 -9.5314751 10
81.281952 7.6989408 -9.5548935 11
45.149734 7.9628496 -9.5566769 13
45.288193 7.8809013 -9.4588938 13
81.105843 7.9934001 -9.4391899 10
81.247498 7.9451752 -9.4563522 14
90.029892 7.8710899 -9.5944538 12
45.256004 8.1816568 -9.4110794 13
81.077866 8.1039772 -9.4656553 11.666667
90.178185 8.1728926 -9.4783306 12
45.168465 8.2122135 -9.5863657 14
45.217377 8.3044386 -9.5788746 14
81.20797 8.3068752 -9.4687309 11
90.031242 8.2959404 -9.4214478 13.5
45.18166 8.4924536 -9.4286184 15
81.298599 8.4317322 -9.4926357 12
89.96405 8.4333057 -9.4499187 14
90.100815 8.5432901 -9.5796213 13.5
45.094666 8.6721859 -9.4682426 14
90.207245 8.7021275 -9.558629 12
90.078499 8.9130621 -9.4683781 13.666667
90.280945 8.8804646 -9.5067625 15
81.177322 9.1251564 -9.4527111 14
81.204109 9.0701561 -9.4320259 11
90.115433 9.0431089 -9.4606018 14
90.065285 9.5130739 -9.4011469 15
81.24823 9.6841602 -9.507 15
81.269684 9.8062124 -9.423171 15
-7.8287506 -0.91037273 -9.226799 10
13.450459 -0.090509325 -9.3839684 8
-7.9555893 0.093892336 -9.3048601 11
13.15876 0.10787106 -9.2819118 8
13.263144 0.10620055 -9.3627005 8.3999996
12.746922 0.66732043 -9.2297831 9.833333
12.842724 0.70704985 -9.2762775 10
12.631062 0.94158125 -9.2211494 10
12.391436 1.2858586 -9.211751 12
11.876319 1.9595423 -9.2808247 14
12.477217 1.9623014 -9.3859835 13
39.852859 2.1022828 -9.3869505 7
39.796471 2.2626331 -9.3848362 8
39.849583 2.3523059 -9.3849449 7.5
39.796787 2.5307691 -9.3606157 9
39.848679 2.4852266 -9.3887119 8.5
39.794621 2.7613161 -9.3599472 9
39.835888 2.6845689 -9.3292875 9.25
32.187294 2.9302104 -9.3596067 11
32.221737 2.9604192 -9.368885 9
31.917953 3.1470246 -9.377449 11
32.198318 3.0949376 -9.3971758 11
31.948139 3.3214598 -9.3913965 13
32.074505 3.2366369 -9.358798 11.666667
31.893345 3.467536 -9.3387461 13
32.094006 3.5300288 -9.3389416 12.3
32.226173 3.5312762 -9.3042889 13.5
31.930922 3.7769325 -9.3273773 13.333333
32.118404 3.6626456 -9.3437147 12.428572
32.231922 3.6165843 -9.3683319 13
31.894798 3.8321428 -9.3970146 14
32.086765 3.8842721 -9.3038235 13.2
32.402855 3.9866486 -9.2850246 13
32.128387 4.1123981 -9.3645372 13
32.307041 4.1050458 -9.3116322 13
32.449593 4.0076537 -9.3965826 13
41.474174 4.1685195 -9.2254114 13
32.224018 4.306757 -9.3997545 13
32.951572 4.2543964 -9.3795338 11
33.046165 4.2880945 -9.3821592 11.5
41.385773 4.2091846 -9.2376165 13
41.596039 4.3727245 -9.3993502 13
41.81868 4.2552443 -9.3060141 13
43.280029 4.2819571 -9.2080173 12.5
32.302502 4.4233251 -9.3270226 14.25
41.467133 4.4857893 -9.2324028 14
41.628147 4.4733171 -9.3026314 14
41.852184 4.5145226 -9.2763004 14.25
43.397984 4.4637222 -9.2046146 13
44.360069 4.4940066 -9.2324047 13
44.941765 4.562655 -9.3441563 11
45.00893 4.5587296 -9.3706284 10
32.104282 4.6997004 -9.3459492 12.75
33.248688 4.7763987 -9.3151293 12
44.355362 4.6136303 -9.2442904 12
44.943817 4.6823869 -9.3251762 10
81.713745 4.7612786 -9.3466053 7.3333335
89.242989 4.6499915 -9.363905 5
32.305122 4.8652945 -9.3281574 14.5
32.754486 4.9818544 -9.3248882 12
33.111244 4.9151173 -9.3456802 12
42.03862 4.8013687 -9.3662329 15
44.454357 4.8008065 -9.2256222 14
44.928551 4.8749413 -9.3316088 10.75
45.070187 4.8624206 -9.398283 14
81.716248 4.9046421 -9.2963753 8
32.275776 5.1911888 -9.2832012 15
44.224148 5.0716434 -9.3300924 14
44.652985 5.0838332 -9.27174 11.333333
44.856339 5.0348969 -9.2979202 13
81.702759 5.0691676 -9.2627544 8.5
81.846207 5.1637707 -9.2949638 9.25
89.118935 5.1321526 -9.39361 7
32.252319 5.301722 -9.2340345 12
41.407001 5.3551302 -9.3883123 13
44.431278 5.3228164 -9.3274097 12
45.147369 5.3222136 -9.35923 11
81.577492 5.2597914 -9.3315725 9
81.643021 5.311729 -9.3451405 9
81.912796 5.3022861 -9.2848969 9.5
95.377403 5.2956815 -9.3633814 6
95.500397 5.2961264 -9.3355217 6
95.681801 5.3282561 -9.3261328 6
95.836189 5.3171344 -9.3513994 6
96.141785 5.3340335 -9.3063498 6
96.242111 5.379777 -9.3138313 6
96.451431 5.3649797 -9.3282757 6
96.666161 5.3593488 -9.3413353 6
32.133125 5.4318523 -9.3895044 13
32.274178 5.4648991 -9.3338308 13
32.502365 5.4124904 -9.3203793 12
32.927799 5.4967775 -9.2899246 15
33.123253 5.5067348 -9.2733097 13.25
44.741035 5.4608459 -9.2654676 14
44.903667 5.4918947 -9.2954111 14
45.096687 5.458745 -9.2967348 12.75
45.242363 5.4464469 -9.3772116 14
81.363884 5.4818115 -9.306118 9
81.92514 5.5042038 -9.270031 10.25
82.486076 5.5639296 -9.2828484 11
82.623314 5.5541558 -9.3239889 11
95.377037 5.5165787 -9.3700809 7
95.506477 5.4836516 -9.3308792 6.6666665
95.671143 5.5238767 -9.3056288 7
95.890923 5.5149412 -9.2776508 7
96.30159 5.4801722 -9.3253498 6.5999999
96.521347 5.5023222 -9.3432274 7
96.65934 5.5864973 -9.3448572 7
96.822121 5.5062609 -9.2977791 7
32.994408 5.7169304 -9.3418922 12
44.972309 5.6173701 -9.234724 13
45.09182 5.6834931 -9.3504353 14
81.174973 5.6508255 -9.3699331 9
81.96711 5.6821475 -9.2025738 10.666667
82.046043 5.6689262 -9.216445 11
82.499779 5.7220588 -9.3269119 11.666667
82.664261 5.7123694 -9.2791996 11.571428
82.825943 5.7511044 -9.3290825 12
95.36245 5.6511211 -9.3860846 7
95.465569 5.6451569 -9.3607464 7
95.68644 5.6933374 -9.3385496 7
96.296211 5.7299461 -9.3623171 7
96.492401 5.7381601 -9.3803921 7
96.657646 5.7213731 -9.3942804 7
44.934425 5.839489 -9.2047091 15
45.03056 5.9022393 -9.3070745 12.333333
81.504601 5.9224768 -9.3133755 10.2
81.667282 5.9231739 -9.3216467 12.2
81.928688 5.8365097 -9.203764 12
82.548874 5.8898196 -9.3028612 12.444445
82.681587 5.8422427 -9.3149786 12
82.827286 5.9364438 -9.3510838 13
95.674606 5.9867878 -9.3529072 8
96.794373 5.9625778 -9.3897114 8
44.746231 6.0625949 -9.2372999 11.25
44.891628 6.1165633 -9.3454065 12
81.37513 6.1249962 -9.2313032 11.4
81.502541 6.0245161 -9.2688379 12.5
81.650932 6.0036273 -9.3680515 10
82.578568 6.0637407 -9.3197193 13.5
82.789825 6.0998359 -9.3363609 12
82.831581 6.1162734 -9.3342371 13
95.694031 6.0016289 -9.3220873 8
96.339531 6.0151687 -9.3324623 8
44.534107 6.3417664 -9.305666 14.5
44.739346 6.3397775 -9.3739462 14
81.186951 6.3212872 -9.2626228 14
81.264748 6.2930579 -9.3140335 13.6
81.453423 6.244123 -9.2290516 14
82.695557 6.2709055 -9.3827019 13
82.903152 6.3040872 -9.3426447 12.285714
83.093407 6.3806982 -9.3789358 14
96.146477 6.389998 -9.3627853 9
44.723213 6.449791 -9.3629999 13.5
44.816387 6.4139943 -9.2480936 15
81.163773 6.5809426 -9.2459307 12.5
81.271919 6.5037384 -9.280736 12.428572
82.932617 6.5218382 -9.2832041 14.125
83.098785 6.5724258 -9.2989836 14.833333
95.510155 6.4950829 -9.3079386 9
95.638412 6.4688048 -9.3541431 9
96.118706 6.5204811 -9.3053579 9
96.291382 6.5138707 -9.3314371 9
96.821312 6.4214973 -9.3513775 9
44.765953 6.6667233 -9.2396135 15
44.905876 6.7449317 -9.2424746 14
81.142853 6.6872573 -9.3248596 13.333333
81.282196 6.6299477 -9.2149076 13.333333
82.903893 6.6939044 -9.2395897 12
44.914257 6.9252634 -9.3484917 12
45.010422 6.9195199 -9.2179146 15
81.117874 6.8871393 -9.3054399 11.5
44.763992 7.1755753 -9.2530003 12
44.90551 7.1214409 -9.3096619 13
45.011536 7.0953655 -9.3569489 14
81.304939 7.1206169 -9.3258257 10
44.723686 7.2914906 -9.2675848 14
81.293442 7.3048706 -9.3406687 10.6
81.298203 7.4251862 -9.2927704 13
45.138283 7.779932 -9.3260717 13
81.030296 7.6616588 -9.2565327 12
90.164047 7.6539412 -9.3642015 12
45.000446 7.8122597 -9.2341824 13
45.219765 7.9140558 -9.3107643 13
80.960579 7.946435 -9.2350512 12
81.00264 7.9194326 -9.2509136 12
89.70755 7.9306931 -9.2344656 13
89.862129 7.9135222 -9.2985401 11
45.088432 8.1316853 -9.2615347 13
45.226936 8.1084003 -9.3125114 13
81.042015 8.0562773 -9.2052183 10
89.891319 8.1360321 -9.3505964 14
90.086128 8.058198 -9.2564182 11
45.115997 8.2818794 -9.2484894 15
80.999306 8.2742271 -9.2175789 13
81.347801 8.3887949 -9.2488079 12
90.087723 8.3056192 -9.2946196 12.5
45.185768 8.4444637 -9.3219566 14.5
45.108887 8.7495346 -9.3909931 15
81.037987 8.661335 -9.2406301 13
45.099045 8.8342733 -9.3722095 14
89.874741 8.8719578 -9.2822876 15
81.247612 9.0537977 -9.3031406 14
90.102104 9.0408907 -9.3659887 15
81.353584 9.8022223 -9.3941927 15
-7.6880093 -1.8932638 -9.0461025 9
12.833937 0.33338952 -9.0812159 9
12.646674 0.59046507 -9.139739 10
12.55535 0.93150973 -9.107461 11
12.637164 0.9629705 -9.1768923 11
-8.0709953 1.1730599 -9.0907879 10.5
12.507477 1.0763096 -9.1660109 11
12.430026 1.2332188 -9.1594343 11
14.971542 1.6242452 -9.0338144 8
-8.0286846 2.102644 -9.1992836 10
14.623677 2.1442878 -9.0457373 10
-8.0944443 2.5254707 -9.173213 10
-8.0597534 3.1799717 -9.1971807 11
32.186104 3.7843521 -9.1783552 14.5
32.014996 3.8465459 -9.1843109 14
41.47723 4.1413002 -9.1357927 12
-8.2098026 4.3214746 -9.1450939 12
41.649139 4.2125778 -9.1171188 12.5
41.854568 4.326231 -9.1113224 13
43.095173 4.3414483 -9.0320616 12
43.289825 4.2913456 -9.1217775 12.333333
41.270851 4.4573712 -9.0574646 14
41.549541 4.5291061 -9.0063353 13
41.664928 4.506434 -9.0781593 13.333333
43.127251 4.4528627 -9.0841522 12.6
43.308296 4.4760418 -9.0881805 13
43.417221 4.4374256 -9.1417971 12.25
44.382671 4.5849605 -9.0915413 12.333333
44.401932 4.5512714 -9.1363125 12
44.766769 4.5920205 -9.1685696 11
78.032448 4.4648795 -9.0150366 7
32.770309 4.64149 -9.1950216 11
41.298077 4.7596455 -9.0438118 15
41.695557 4.7444801 -9.1458244 15
41.849949 4.6683149 -9.1219473 14
42.78196 4.73878 -9.131011 14
43.137947 4.6224976 -9.0488873 12
43.358784 4.6425648 -9.0531445 13.25
43.49699 4.6964135 -9.0840693 13.666667
44.019394 4.6918559 -9.0883293 12
44.257553 4.6990161 -9.0981379 12.333333
44.47863 4.7015085 -9.1107759 11
44.741051 4.7363806 -9.0454779 12
77.936035 4.6516504 -9.0255375 8
78.018318 4.6846399 -9.0499849 8
41.317425 4.8027029 -9.0613222 15
43.092335 4.9076233 -9.0050783 12
43.472095 4.8817949 -9.0508528 13.333333
44.356823 4.9094715 -9.0742769 14
44.767387 4.9244709 -9.1344948 11.5
77.935234 4.9004817 -9.0648851 9.125
78.037575 4.8878479 -9.0857162 9.5
32.523754 5.0398049 -9.1681538 12
42.708744 5.0779357 -9.0668526 15
43.469097 5.0331731 -9.0374441 14.666667
44.392612 5.0888166 -9.0805302 15
44.50164 5.1168909 -9.0990028 12
44.691959 5.0776978 -9.0665369 12
77.937675 5.0938654 -9.0669327 10.253086
78.05014 5.0381627 -9.0570793 10.5
81.724808 5.1370592 -9.1593924 9
81.80835 5.1186428 -9.1997919 9
88.128159 5.1625605 -9.077548 7
43.462234 5.3497181 -9.0336084 15
45.114105 5.3751554 -9.1274662 11
77.925301 5.286767 -9.0519323 11.208333
78.026062 5.3397775 -9.0688934 12.5
81.411926 5.3629169 -9.1808548 8
81.739006 5.3098593 -9.1082973 9.5714283
81.832664 5.2999911 -9.1130476 8.666667
44.321442 5.4934783 -9.0700598 14
44.449516 5.4348955 -9.1196594 14.5
44.911026 5.5210543 -9.0079193 10
45.050865 5.5568819 -9.0569525 11
77.911423 5.4889603 -9.0467596 12.264706
81.751778 5.4526405 -9.0304489 10.714286
81.816986 5.4585991 -9.0336218 11
96.258156 5.5462418 -9.1515589 7
33.123985 5.6528425 -9.1555576 13
44.553337 5.6776972 -9.0710106 13.5
44.719753 5.7171173 -9.1294928 11.5
44.933086 5.7122016 -9.0660515 12.333333
45.034119 5.6869559 -9.0269279 12.333333
81.959381 5.6851168 -9.1822119 11
82.060387 5.7692227 -9.1310635 11.25
82.64595 5.7855835 -9.178978 11
32.644894 5.9462419 -9.0945034 14
44.410774 5.926507 -9.0101204 14
44.737892 5.9352674 -9.0969591 11.2
44.984287 5.8773494 -9.1786499 14.5
81.357964 5.9249129 -9.025383 8
81.57708 5.9373512 -9.1408272 9
81.792099 5.8658624 -9.0335627 10
81.911171 5.9231057 -9.1116333 11.571428
82.090157 5.8910146 -9.0762253 12.333333
82.272858 5.8738546 -9.1126709 12
95.882027 5.9863057 -9.0801659 8
96.387093 5.9385648 -9.0445976 8
32.890541 6.0980282 -9.1576519 13
44.533123 6.088695 -9.0888987 11.333333
44.685745 6.0991974 -9.0694437 12.25
44.909103 6.1435761 -9.0822163 12.2
81.562088 6.1340623 -9.1692715 13
81.738731 6.1341038 -9.0516071 12
81.885567 6.0986657 -9.0757446 12.833333
82.130737 6.0529723 -9.0363531 14
82.62912 6.1245813 -9.1328936 13
44.911667 6.2601662 -9.0614204 12.777778
81.381966 6.3527679 -9.1077604 14.333333
81.51796 6.3143272 -9.0590067 12.166667
81.611763 6.2943258 -9.033186 13
82.117661 6.2152586 -9.0586071 11
32.653191 6.5344086 -9.0500412 15
81.369278 6.4513187 -9.1100483 11.5
81.468483 6.5388885 -9.1471567 13
44.891525 6.7310596 -9.0519505 14
81.201546 6.6175609 -9.1627388 11
81.492897 6.6209579 -9.0857067 12.6
82.576927 6.6302176 -9.0110931 12
44.768284 6.8228207 -9.0964355 11
44.920254 6.883337 -9.0927114 13.111111
81.281868 6.8565893 -9.1923046 15
44.568867 7.0003061 -9.1526051 12
44.694778 7.1321058 -9.1358051 13
44.94429 7.0949373 -9.153183 14
81.19091 7.1117544 -9.0782261 11
81.223671 7.0522628 -9.149807 10.333333
81.150726 7.2836452 -9.0329523 11
81.071426 7.5809708 -9.0424662 13
81.083069 7.7427521 -9.088748 12
89.560631 7.675549 -9.0595655 12.666667
45.03875 7.8857374 -9.1518631 13.5
80.967262 7.8965869 -9.0953779 12.333333
45.140709 8.101346 -9.1570988 15
80.929749 8.0235453 -9.0878077 13
89.902863 8.122241 -9.0729685 12
80.953751 8.3362999 -9.1167278 14
81.036331 8.3134489 -9.1456709 13
80.995522 8.4229116 -9.1460018 13
45.064011 8.631525 -9.0932598 15
80.980453 8.6359968 -9.1478081 14.5
81.289536 8.668066 -9.0939598 11
81.064606 8.840745 -9.1120634 12
81.128632 9.0935459 -9.1006565 11.5
81.038719 9.2978163 -9.0678988 15
81.042747 9.5457401 -9.0436239 15
81.057999 9.7712936 -9.1369925 14
102.26122 9.8311634 -9.1047134 13
-6.7344007 -4.8827381 -8.9323616 15
-6.5645332 -4.9148016 -8.9471979 15
-7.3860779 -2.712625 -8.8658237 12
-7.623251 -1.7163639 -8.9453306 13
12.480387 1.0186076 -8.968606 11
14.959584 1.4553356 -8.8279276 8
15.015367 1.4493978 -8.8633709 8
14.789552 1.7226663 -8.8264675 9
14.891494 1.7370257 -8.884367 9
14.686073 1.9871731 -8.9419746 10
-8.077158 3.0907061 -8.9195452 11
-8.2363033 3.5596027 -8.8485003 11
42.572502 4.3113508 -8.9433537 12
42.691914 4.319499 -8.9862461 12
82.111237 4.3463383 -8.8279905 5
41.537674 4.5122204 -8.9670153 12.25
41.6213 4.4839602 -8.9799519 12.5
42.569962 4.455204 -8.9715805 13
43.113274 4.492135 -8.8770466 11
43.795586 4.5426412 -8.962347 13
41.778812 4.7893324 -8.9165115 14.5
41.805267 4.780457 -8.8205204 13
42.549248 4.7325835 -8.8945255 13.4
42.662975 4.703495 -8.8820076 13.5
42.960667 4.7678075 -8.9344454 14
43.097168 4.7012711 -8.8636198 13
43.288872 4.6785183 -8.9197884 13.625
43.865322 4.6057024 -8.9956894 13
44.415176 4.741559 -8.8360252 11
44.934761 4.606473 -8.9924593 10
41.680588 4.9867649 -8.9205675 15
41.831039 4.8857632 -8.8227272 13.5
42.546066 4.810585 -8.8613405 14
43.097382 4.8584609 -8.8624973 13
43.344509 4.971303 -8.9430447 14
43.435951 4.9348898 -8.9192104 15
43.751423 4.8879366 -8.9199047 14
43.986496 4.9465332 -8.9418697 13
44.07608 4.874969 -8.8701324 13
44.333778 4.9270487 -8.9015341 12
44.409622 4.8990154 -8.9400406 12
44.676849 4.8690929 -8.9288025 13
44.871094 4.8227158 -8.8824501 11.5
41.580383 5.0369987 -8.8606501 13
41.614529 5.029644 -8.8511791 13
42.697796 5.0723772 -8.8380547 14.6
42.963287 5.1292944 -8.9929371 15
43.116302 5.08079 -8.9123917 13.4
43.25658 5.0155716 -8.9559679 14
44.313065 5.0857458 -8.9109793 10.5
44.438465 5.0891509 -8.9347057 13.285714
77.921234 5.0946445 -8.9920788 9.5
88.129204 5.1025953 -8.8890934 7
41.751385 5.2616706 -8.8014269 15
43.331501 5.3612347 -8.8999262 15
44.112789 5.3741698 -8.8213472 12.666667
44.29945 5.3617277 -8.8831701 13.2
44.501202 5.285285 -8.8676395 11.25
44.759544 5.3439598 -8.9192848 13
77.91613 5.2930474 -8.9965668 11
87.970512 5.378499 -8.8824654 8
88.075493 5.3707767 -8.9661903 8
42.99131 5.5693088 -8.9741726 14
43.133102 5.4109259 -8.8848076 15
44.132736 5.4250002 -8.8288574 12.5
44.301777 5.4810944 -8.9000015 13.166667
44.465618 5.5054598 -8.9514828 15
77.738991 5.5457215 -8.9345903 11.5
77.924873 5.4828029 -8.92766 12.142858
81.733971 5.4700937 -8.9813766 10
81.906967 5.5374889 -8.8450794 8.5
44.173096 5.6497626 -8.8350267 13
44.201439 5.7673225 -8.9878683 15
44.402363 5.7491808 -8.9472303 14
44.707439 5.7575645 -8.9041271 12
45.003975 5.6613879 -8.9643602 11
77.777512 5.6803379 -8.8743725 13.5
77.902679 5.6256533 -8.8545818 13
81.591713 5.6268053 -8.8245144 13
81.921432 5.6334796 -8.8222294 11
44.251961 5.9429169 -8.8658504 14
44.518375 5.881742 -8.8843498 15
44.653145 5.8671455 -8.9102221 14.2
81.72094 5.8512983 -8.949501 9
44.099648 6.1632147 -8.867898 15
44.294037 6.0671849 -8.9155655 13.333333
44.476471 6.0634651 -8.8948154 13
44.669582 6.0542336 -8.8655043 13
81.730659 6.1703234 -8.9646053 14
82.052719 6.1258316 -8.9469252 13
82.684486 6.0746975 -8.9590416 13
44.181499 6.3069038 -8.8689051 13.333333
44.294979 6.2866082 -8.8873158 13.666667
44.483212 6.3496284 -8.9528637 14
44.696369 6.2893167 -8.9267778 12
44.94239 6.3146372 -8.9639454 12
45.026825 6.3673611 -8.9284458 12
81.581909 6.3176208 -8.9752254 14
81.671974 6.2725816 -8.8651419 11
82.090096 6.3721437 -8.9201832 14
82.217148 6.3452206 -8.9143372 12
82.661499 6.265739 -8.9554548 13.25
44.344063 6.412652 -8.919383 14
44.738605 6.4176369 -8.913559 13
45.108749 6.4820185 -8.8932581 12.5
81.502243 6.5078907 -8.8942089 14.5
81.680786 6.5522285 -8.9856482 10
82.65432 6.5149703 -8.9609356 15
44.762299 6.7634811 -8.9665318 13.5
44.840614 6.726871 -8.9690981 12.5
81.522568 6.6817293 -8.8728085 12.75
44.510479 6.9511943 -8.8846931 13.333333
