# .PCD v0.7 - Point Cloud Data file format
VERSION 0.7
FIELDS x y z intensity
SIZE 4 4 4 4
TYPE F F F F
COUNT 1 1 1 1
WIDTH 1317
HEIGHT 1
VIEWPOINT 0 0 0 1 0 0 0
POINTS 1317
DATA ascii
-7.3347692 1.6072319 1.7782739 13
8.6531191 1.6070374 1.7189885 13
8.734642 1.6525699 1.788693 13.637
8.5270128 1.7441351 1.7767634 13.629
-7.318295 1.8615686 1.7560219 13.666667
8.6709661 1.851757 1.7394577 14.1395
-7.3161039 1.9174932 1.7298024 14
8.2291374 1.9960538 1.7975246 15.137
-7.3087759 2.0926399 1.7433997 15.046
8.2414684 2.0589969 1.7109311 15.13975
-7.3060799 2.1623254 1.7718523 14.5
-7.292592 2.1432323 1.7525927 15
8.2227135 2.1507776 1.7780037 15
8.3822374 2.1869266 1.743004 15.129
12.505909 2.2857394 1.7206787 13.131
-7.2935309 2.5003777 1.7778597 15
-7.3076701 2.7351441 1.7792292 15
-1.3734047 -0.78630632 1.8411922 3
9.4408188 -0.59956819 1.8993194 6
-1.3596921 -0.49155605 1.8507611 0.33333334
-1.2741539 -0.47924837 1.8858459 1
-1.0485826 -0.45723906 1.8548198 0.89999998
-4.1342573 -0.30821723 1.8284823 5
3.0952652 -0.34784341 1.8921058 5
-1.6163306 -0.21090248 1.8911798 4.5
-1.4353806 -0.239683 1.8413373 4
-1.285159 -0.28736833 1.8570859 3
-1.1514481 -0.27741548 1.8696389 1.5
-0.61442935 -0.21714655 1.8895779 1
3.1416674 -0.25841099 1.8820088 5.9000001
8.646595 -0.24467678 1.8244364 7
-1.8008885 -0.10514226 1.8528037 5.75
-1.3953931 -0.19953966 1.8901256 4.5
-1.26736 -0.17713095 1.8714458 4.5714288
-1.1453094 -0.15402937 1.8543749 4.2142859
-1.068266 -0.11991245 1.8675276 4.7321429
-0.6100651 -0.12200754 1.8866221 3.5999999
-0.54666978 -0.12261152 1.8559047 3.5
-4.6740084 -0.079542384 1.8393083 7
-1.7965868 -0.093733676 1.8235102 5.5
-0.61169422 -0.070369348 1.8927553 5
-0.51363486 -0.088047184 1.819544 4.5
-1.8091686 0.007499672 1.8912489 7
-1.7590077 0.0015882533 1.8628031 7
-1.1250777 0.081769437 1.8334533 8.848278
-1.0789399 0.079506189 1.8480599 8.5
-0.61186409 0.082845658 1.8784027 9.25
-0.57287502 0.036599711 1.8665048 8
3.2617042 0.081600361 1.8762338 9.1370001
8.5926247 0.050032191 1.8054398 8.1289997
9.7603045 0.022129647 1.8038223 8.1450005
-5.9673219 0.19082436 1.8359725 8.0157499
-5.8448386 0.18371846 1.8368502 8.0085001
-5.6295514 0.18516453 1.8172936 8
-4.1080737 0.16468716 1.8022821 8
-1.9587758 0.1599952 1.8814735 8.6840935
-1.8509179 0.14526404 1.8674718 8.7895422
-1.2293696 0.18687312 1.8872257 9.8970032
-1.1334176 0.12437496 1.8694634 8.5804443
-0.61470598 0.17411473 1.8945971 11.571954
-0.55795109 0.16111481 1.8877649 11.425301
-7.2351618 0.24894932 1.8838905 8
-7.0708737 0.24388975 1.8745723 8
-6.6636696 0.3136847 1.8564076 8.333333
-6.0927925 0.32078156 1.8647983 8.5
-5.7068677 0.3049736 1.8448374 8.5
-6.4194775 0.44000137 1.8672017 9.0395002
-6.0842237 0.4828448 1.8762679 9.0209999
-5.9259825 0.46835509 1.8428321 9
-5.8395557 0.4352181 1.862675 9
-5.4969392 0.41617313 1.8388011 9.0305004
-5.1933875 0.41645679 1.8147788 9.0240002
-5.0439367 0.42335624 1.8003631 9
-4.756506 0.4154385 1.8025832 9
3.4840739 0.44199306 1.8377399 12.13725
11.703362 0.45247909 1.8900318 9.1350002
-7.2043023 0.51510119 1.8868942 9
-5.9087405 0.59040231 1.8439994 9.5257502
-5.5076466 0.57969975 1.8149242 9.5
-4.9885654 0.54528898 1.8030887 10.0425
-4.7856803 0.59957761 1.8108516 10
-4.3930693 0.55738407 1.8023481 9.5
-7.0302215 0.63498867 1.8787925 9.5
-6.7392416 0.65290082 1.8629906 9.666667
-6.3697257 0.6204052 1.8654165 9.5267506
-5.9793763 0.69744724 1.8603265 10.0315
-5.8752227 0.60367221 1.8342423 9.5
-5.7285461 0.67700183 1.8460994 10
-5.6177006 0.66763747 1.8436918 10
-5.4356399 0.6088903 1.8466187 9.5194998
-5.3509903 0.68661153 1.8251464 10.538
-5.2954831 0.64062977 1.8200462 10.03
-5.1948776 0.674164 1.8075752 10.024
-5.0733852 0.65668881 1.810814 10.5375
-4.8858147 0.6967901 1.8068928 10.21445
-4.3742809 0.69774842 1.8101234 10
-4.0890665 0.61161453 1.8075023 11
8.9109468 0.68889999 1.8667002 10.129
-7.1957936 0.78259903 1.8861692 10
-6.7629042 0.76494175 1.8932457 10.033
-6.579277 0.72218668 1.8508663 10
-6.4792995 0.74021119 1.8845744 10.0325
-6.224844 0.71881747 1.8748677 10
-6.0856485 0.73724878 1.862977 10.271749
-5.7576928 0.77513331 1.8525962 10.24911
-5.6182075 0.72092253 1.8287811 10
-5.4488921 0.79257047 1.83225 11.043
-5.3577137 0.7437526 1.8298268 10.02075
-5.2275028 0.74917769 1.8431358 10.019
-5.0687337 0.72369635 1.8177466 10.02
-4.9461355 0.72819459 1.8159068 10.530375
-4.8433504 0.74274892 1.8088518 10.766125
-4.5771203 0.7095955 1.8094459 10.01725
-4.2495985 0.73564214 1.8052323 12.046
-4.0896907 0.76223093 1.8112206 12
8.8795671 0.74140364 1.8698201 10.148
9.0327587 0.7907896 1.8431501 10.1495
-6.1979098 0.80446911 1.8665581 10.02275
-5.2712827 0.82081985 1.8209062 11.03325
-4.8149524 0.82470983 1.8103213 11
-4.1013608 0.80026501 1.8230375 12
8.9556208 0.82568449 1.8378534 10.151
-6.5292115 0.96428567 1.8598125 11
-6.254662 0.98604083 1.8810492 11
-6.1699991 0.97408468 1.8903279 10.52125
-5.737711 0.99645925 1.8433847 11.53425
-5.598958 0.91114879 1.8479145 11
-5.414258 0.9892478 1.8331366 12.043
-5.2947354 0.93565059 1.8405297 11.28
-5.0633659 0.93359274 1.8032022 11
-4.9088635 0.99518007 1.8069274 12.5425
-4.8407917 0.97007018 1.8119729 11
-4.5578871 0.99670058 1.821641 11.01725
-4.3840599 0.98378009 1.8094378 11
-4.2979021 0.97666001 1.8030081 11.0165
-4.1353979 0.94946343 1.8049682 13.546
-4.0861001 0.95829612 1.8217483 13.166667
8.358325 0.95299309 1.899469 11.1285
8.6232185 0.95591486 1.8244734 11.13175
-6.9850602 1.0242509 1.8907772 11
-6.7213092 1.0945036 1.8854842 11.0275
-6.5153985 1.0609728 1.8828177 11.368999
-6.4433293 1.007162 1.895803 11.0325
-6.3434014 1.0367969 1.8791873 11.5395
-6.1220093 1.0500817 1.8637557 11.535
-6.087369 1.0973409 1.8806005 11.5
-5.9593287 1.0722339 1.8630664 11.6535
-5.8836832 1.0115023 1.8469419 11.012875
-5.7352676 1.0600457 1.85049 11.260875
-5.6058292 1.0851412 1.8773327 11.02
-5.4284678 1.0706298 1.8310074 11.852417
-5.321352 1.0443702 1.8490887 11.02
-5.2604704 1.0418872 1.8204718 12.03325
-5.158113 1.0581311 1.8263535 11.524
-5.0363059 1.0374955 1.8108273 11.685834
-4.915009 1.0438311 1.8288947 11.523624
-4.825985 1.0661844 1.8105656 12.266125
-4.5260015 1.0101748 1.8008657 12
-4.0656514 1.0828855 1.8105268 14
-6.906796 1.1870396 1.8974829 11.02425
-6.7921658 1.1006432 1.8994373 11.544
-6.6694813 1.1098022 1.8704908 11.5
-6.5315843 1.1479679 1.8838553 11.0235
-6.1841183 1.1127791 1.8683515 11.02275
-5.8225632 1.1049751 1.8828964 11.0205
-5.5379333 1.1491046 1.85072 12.01525
-5.4012699 1.1379944 1.8715376 13.0465
-5.3574657 1.1812048 1.8379656 13.043
-4.5377531 1.1210166 1.8020084 12.5
-4.0535417 1.1165622 1.813868 14
10.960016 1.1560996 1.8150001 11.1315
-7.0244431 1.2960143 1.8907688 12
-6.4591436 1.2423078 1.8825204 12.016251
-6.2271576 1.2486179 1.8884714 12
-5.3949256 1.2338287 1.8228087 12
-4.5320196 1.2285243 1.8160758 13
-4.3728938 1.2025042 1.8034587 13.0275
-4.0288568 1.2052759 1.8310319 15.0505
8.6046696 1.2413559 1.8042018 12
8.7846909 1.2346257 1.8901639 12
8.9007921 1.3783213 1.8652222 12.1475
-7.3493423 1.481449 1.8858206 12.333333
-7.3739572 1.5730703 1.8769207 12
8.3852463 1.5575454 1.8263071 13.143
8.5158367 1.5566797 1.8399425 13.470166
8.6651649 1.5247804 1.8812063 13
8.767519 1.5574056 1.8391728 13.1305
-7.3300076 1.6065576 1.8634411 12.5
8.2934999 1.7577759 1.8721579 13.666667
-7.3345346 1.8579483 1.8236548 13.3
8.2746582 1.8270602 1.8576286 14
-7.3663554 1.9220612 1.8666663 13
-7.2987638 1.9435003 1.8168179 14.5
8.8799934 1.9041672 1.8598945 14.1325
8.0973415 2.0633049 1.8903561 15
8.1397123 2.0801873 1.8709298 14.5755
8.218092 2.0643606 1.8857608 15.13425
-7.3039546 2.1502652 1.8334856 15
8.0525265 2.1492448 1.8888726 14.1525
8.1661243 2.1282759 1.8310902 15.071625
-7.3435831 2.271018 1.8712783 14
8.1632242 2.2164354 1.8535161 15.1485
-7.3310161 2.3507483 1.8705702 14
8.1661921 2.3031235 1.880197 15.149
-10.648686 2.5374525 1.8838539 13
-7.3577008 2.6311204 1.8866005 15
-7.3373399 2.727164 1.8765721 15
-10.615833 2.8555143 1.8887081 14.0325
-21.271723 2.9702415 1.8201889 11.0475
-1.1940892 -0.74445367 1.9655619 4
-1.4324554 -0.60682207 1.9646454 3
8.7894564 -0.60631782 1.9356399 6
9.4129353 -0.60627538 1.9283304 6
-1.8860583 -0.52381444 1.9308786 0.5
-1.1572845 -0.5724014 1.9220519 4.125
-1.9056407 -0.47849128 1.9105046 0.5
-1.8808284 -0.43689623 1.9646217 1.4444445
-1.0210078 -0.41545123 1.9740041 1
-0.97760832 -0.44912693 1.9171462 4
-4.316112 -0.30547339 1.9677415 6
-1.1395903 -0.33177513 1.9189317 1.5
3.146992 -0.35299736 1.964636 5
-1.9264723 -0.25519332 1.9372219 3.5
-1.8405488 -0.2651774 1.9663746 3.6500001
-1.1192957 -0.26305565 1.9244236 2.3333333
3.1244137 -0.24597685 1.9438405 6
8.6878176 -0.24512306 1.9532764 7
-1.8209938 -0.14639072 1.9461632 5.0185184
-1.2510474 -0.15016875 1.9540907 4.75
-1.1602033 -0.16297159 1.9309516 3.8181818
-1.0302191 -0.13237864 1.9834342 4.5
3.1736367 -0.14340833 1.9657041 7
-5.0474691 -0.077927366 1.9492798 7
-1.8470448 -0.052266095 1.9398437 7
-1.0427411 -0.066594802 1.9741005 5.9444447
-2.0081677 0.096314192 1.920269 8.0089998
-1.9969429 0.0020520873 1.925874 7
-1.8469145 0.084782407 1.9522709 8.0116873
-1.7936029 0.099357024 1.9203414 8.0684996
-1.2312479 0.093968116 1.9799614 8.0065002
-1.0632601 0.052609991 1.9526715 8.5843611
9.480545 0.0036641276 1.9927326 8.1304998
9.6221857 0.042273283 1.9427874 8.1344995
-1.8384368 0.12886111 1.9332172 8.5046253
-1.234273 0.18073073 1.9426126 10.097281
-1.154978 0.1371782 1.9548718 9.5969934
-1.0738482 0.12137162 1.9576685 9.1669321
-7.3258181 0.2228047 1.9126751 8.0404997
11.733369 0.44461989 1.9486088 9.1407499
-8.1753979 0.58629096 1.9536691 9
-7.2911773 0.62757146 1.9151042 9.5404997
-7.098413 0.76988673 1.9020181 10.0365
-7.8080425 0.81202728 1.9445641 10.041
-8.8433151 0.99164295 1.9611738 10
-8.4955215 0.98505867 1.9728889 10.027
-8.2475233 0.95456636 1.9575863 10
-8.1151714 0.94825912 1.9469585 10
-7.6460137 0.90532482 1.9342632 10
-7.5557737 0.9099232 1.9485116 10
8.2674932 0.91767573 1.9324106 11.047584
8.3592501 0.90963984 1.9949818 10.650249
-9.5701923 1.0559031 1.9929061 10
-9.1165991 1.0152073 1.9924998 10
-8.7774954 1.0034956 1.966918 10
-7.7306128 1.0925463 1.956395 11.041
-7.6939216 1.0249062 1.9358792 10.333333
-7.0171199 1.0445719 1.9900256 11.023499
-6.7186484 1.0395501 1.9076686 11.033
-8.3894768 1.1777188 1.9764584 11.0415
-8.1534405 1.1885942 1.9527352 11
-7.9598989 1.1539665 1.9317703 11
-7.7183433 1.1403539 1.9419103 11
-7.6852751 1.1457913 1.9463724 11
-7.4213147 1.1230756 1.95842 11
-7.3672638 1.1838923 1.9124861 11
-6.7601175 1.1938709 1.9141645 11.0225
-6.509676 1.1694498 1.9079924 11.022
8.2574768 1.1994058 1.9897346 12
9.5181999 1.1247169 1.9526834 11.146749
-8.781826 1.2578926 1.9610865 11
-8.5520163 1.2556446 1.9898494 11
-8.2210121 1.2205594 1.9850707 11
-8.0824766 1.2038448 1.9726651 11
-7.8318772 1.2375695 1.9305072 11
-7.7222528 1.2909079 1.935544 11
-7.5362439 1.2033738 1.9183254 11
-7.4283271 1.2304429 1.9347248 11
-7.3724141 1.2545245 1.9385011 11
-7.2620649 1.2116855 1.9423227 11
-7.031508 1.2946551 1.9692136 12
8.1997766 1.2767026 1.9975262 12.148
8.4299107 1.2722445 1.9842863 12
8.6282415 1.2912815 1.9205699 12.1425
-9.1161146 1.3888096 1.9939427 11
-8.9096985 1.3961102 1.981319 11
-8.7209148 1.3418697 1.972373 11
-8.5237675 1.3743812 1.9605179 11
-8.4015951 1.3041905 1.9557586 11
-8.2706251 1.3229458 1.9757986 11
-8.0810909 1.3273199 1.9579637 11
-7.3158588 1.3762102 1.9346797 12
8.2893944 1.3617826 1.9764582 12.63825
-9.2225132 1.493952 1.9991291 11.5
-8.9211016 1.4162825 1.9809799 11
-8.3408527 1.4490426 1.9672453 11.687416
-8.1702185 1.488106 1.9460042 12
-8.0679388 1.4209108 1.9611645 11.333333
-7.9496441 1.4634919 1.9390295 11.833334
-7.7615204 1.4455342 1.9550833 11.8
-7.3711729 1.419651 1.9404196 12
8.221262 1.4768645 1.963056 13
-8.641839 1.574626 1.9776896 12
-8.5863342 1.5853988 1.9893405 12
-8.4971361 1.592683 1.9988954 12
-8.1273785 1.5223498 1.9770488 12
-8.0913267 1.529817 1.9783843 12
-7.7240787 1.5287354 1.9521573 12.541
-7.5404325 1.5315704 1.9261713 12
-7.4557371 1.5720316 1.9875373 13.047
-7.3324246 1.5344005 1.9200044 12.333333
-8.2523422 1.6904904 1.9750557 12
-8.0786142 1.6098047 1.9599519 12
-7.7224426 1.661543 1.9401507 12
-7.6279068 1.6534747 1.9492402 13.0445
-7.5736837 1.639531 1.9686375 12
-7.3503714 1.6330676 1.9348338 13
8.2515621 1.6465096 1.9606192 13.5
-8.5071287 1.7364761 1.9880567 12.027
-8.4973249 1.7641331 1.9663711 12
-8.3070812 1.7918974 1.9847134 13.0415
-8.1253214 1.7517865 1.9500003 12.5
-7.3410282 1.71893 1.9477026 13
7.9329185 1.7488279 1.9485157 14.136688
8.0132065 1.7225651 1.9370575 14.134
-8.8741121 1.8145938 1.9866743 12
-8.7035799 1.8250465 1.9824171 12.333333
-8.5533829 1.8555402 1.9682214 13
-8.3630829 1.8896852 1.9680729 12.666667
-8.13097 1.8441975 1.971325 12.75
-8.0259838 1.8457723 1.9849205 13
-7.9040699 1.8456366 1.9444015 13.333333
-7.747952 1.8995677 1.9406343 13
-7.647697 1.880303 1.9660778 13.333333
-7.5417161 1.8645184 1.9159818 13
-7.4402142 1.8935933 1.9192598 13.666667
-7.334311 1.8717477 1.9427121 13.7
7.8758574 1.831212 1.985652 14.1485
-8.5352049 1.909796 1.9997158 13
-7.9415679 1.9339124 1.9503303 13
-7.7577367 1.9584833 1.9563236 13.513667
-7.5871444 1.9307809 1.9476017 14.0445
-7.3276458 1.9520292 1.9238386 13.733335
8.093935 1.9628576 1.9375889 15.1365
-8.2389069 2.0619783 1.9733329 13
-8.1156025 2.0990748 1.9555593 13
-7.3261456 2.0578575 1.9588792 14.5
7.9848299 2.0486362 1.9415815 15.14625
8.079299 2.038053 1.9374636 15.0695
-8.5206003 2.1426048 1.9767189 13.0135
-8.1307478 2.1993966 1.9976463 14
-7.9922204 2.1692388 1.9860139 14
-7.7009783 2.1583219 1.9413576 13.333333
-7.4714389 2.185576 1.9444262 14.52225
-7.3130021 2.1664503 1.9192184 14.666667
-7.2839603 2.1620789 1.9820385 15
8.0522537 2.122447 1.9657575 15.128
-8.9093933 2.227807 1.9962678 13
-8.3830891 2.2923319 1.9844455 14.52075
-8.1895981 2.2225068 1.9639852 14.333333
-7.9248996 2.278609 1.9566722 14
-7.7155395 2.2600534 1.9665233 14.513667
-7.4099956 2.2917004 1.9286804 15
-7.2990866 2.2581992 1.9351765 14.5
-8.737133 2.3249617 1.9948931 13.666667
-8.3294973 2.3638067 1.9766593 14
-8.1136847 2.3135276 1.9848545 14.5
-7.8983088 2.356005 1.95804 15
-7.7273126 2.356236 1.9657953 14.5
-7.3602009 2.345037 1.956965 14.5
-7.2903409 2.3276758 1.9544799 15
-8.4593153 2.4938045 1.993855 14.027
-8.1594086 2.4605074 1.9746039 14
-8.0864153 2.4091427 1.9731822 14
-7.2896042 2.4808662 1.9254351 15
-10.708035 2.5423346 1.955904 13
-10.684537 2.5035031 1.948422 13
-8.5103168 2.5647054 1.9806333 14
-8.2781639 2.5218406 1.9980655 15
-7.5117683 2.5316899 1.9523892 15
-10.7012 2.6803401 1.9550673 14.0425
-10.166917 2.6233382 1.9326842 14.0395
-8.8494654 2.6300368 1.9987411 14
-7.9021029 2.6251423 1.9726515 15
-7.7297812 2.6720488 1.955822 14.666667
-7.2808237 2.6081848 1.924263 15
8.8500099 2.6634316 1.9170179 15.151
-10.664133 2.768507 1.9629054 14
-10.046135 2.7272046 1.9094977 14.032
-9.7207842 2.7501068 1.9829488 14
-8.3053417 2.723335 1.9901452 15
-8.0131226 2.7696714 1.9883947 15
-7.7361741 2.7068996 1.9722724 15
-7.3968897 2.7247841 1.9794831 15
-10.133758 2.8756061 1.9289486 14.02825
-8.1430168 2.8455682 1.984297 15
-7.8661432 2.8311138 1.9603715 15
-10.648394 2.9545031 1.9279971 14
-8.5354862 2.9772072 1.9975142 15
-10.655595 3.0800571 1.95839 15.0425
-10.111376 3.0107841 1.9393859 15.0395
-10.460931 3.1236854 1.955337 15
-0.98939937 -0.79673719 2.089632 4
9.4266872 -0.62329316 2.089056 6
9.4312801 -0.58284736 2.0404384 6
-1.4865139 -0.43920302 2.0381165 2
-1.1220195 -0.30221847 2.0312881 1
-1.0393182 -0.39797252 2.0226967 2
-1.2091658 -0.25787327 2.0695698 2.2777777
-1.1426263 -0.24921282 2.0021846 2
-1.293467 -0.18194047 2.0885906 4
-1.0472317 -0.10336777 2.010622 4.75
-6.0627403 -0.061715227 2.0361698 7
-1.03854 -0.033792261 2.0386052 6.5
-1.8024483 0.07687287 2.0096924 8
-1.1132817 0.089041874 2.0411808 8.0057497
-1.0511512 0.067063652 2.0334525 8.2512255
9.8503075 0.0973185 2.0101414 8.1415005
-2.0089521 0.12139554 2.0056055 8.4223003
-1.9691072 0.10510937 2.0703454 8.0100002
-1.07023 0.12381291 2.0434313 9.1929998
9.9072809 0.10658292 2.0797544 8.1490002
-10.099169 0.29689273 2.0364618 8
-9.3595047 0.27689913 2.0137491 8.0365
-2.0596476 0.25670439 2.0473301 10.056499
-1.2237811 0.23012643 2.0303741 10.138416
3.3774545 0.31381506 2.0455453 11.1355
11.704288 0.45429668 2.0949278 9.1344995
-10.387951 0.69810951 2.0771139 9
-10.142735 0.683469 2.0634086 9
-9.9430666 0.67163479 2.0400131 9
-10.878896 0.75107145 2.0956736 9
-10.671115 0.73731226 2.0825713 9
-10.522718 0.70611912 2.0971992 9
8.1699905 0.88132191 2.0073133 11
8.2626572 0.88171351 2.0669675 11.06925
-9.3293591 0.99526018 2.0285478 10
-9.1036291 0.97463548 2.0147376 10
-9.0224733 0.96729034 2.0071051 10
8.2367668 0.94385689 2.0394297 10.889875
8.3107738 0.98157293 2.0622694 11.14775
-10.39956 1.0939931 2.0841475 10
-10.13558 1.0695634 2.0683808 10
-9.7190399 1.0310892 2.0474579 10
-7.0128984 1.0245868 2.0304022 11
-10.633743 1.1295058 2.0819013 10
-10.512011 1.1044279 2.0905964 10
-7.0224643 1.128068 2.0283885 11.2865
8.0832071 1.1791873 2.0938075 12
8.1400614 1.1523257 2.0464113 12
-9.0791883 1.2668803 2.0140564 11.042
-8.8340836 1.2868773 2.0021219 11
-7.0580683 1.2976551 2.0167899 12
-9.8696966 1.3694301 2.0581913 11.0425
-9.6557627 1.3959789 2.0436344 11
8.1323261 1.3696775 2.0632296 12.408584
8.2561378 1.3227513 2.0738111 12.5
8.3083324 1.32809 2.0555897 12.6385
8.8711271 1.3343319 2.0142238 12.1285
-10.353771 1.4858123 2.0906627 11
-10.080341 1.4514163 2.0764608 11
-9.8181095 1.4274919 2.0440025 11.035749
-9.7148924 1.4055471 2.0593569 11
-9.665062 1.4887788 2.037143 11
-9.5544176 1.4591106 2.0167956 11
-9.4347534 1.4669932 2.0107856 11.333333
-9.3164539 1.4414489 2.0280333 11
-9.2587376 1.4600012 2.0167313 11.166666
8.1877871 1.4448323 2.0557003 13
8.2026873 1.4555968 2.0623331 13.1385
-10.837757 1.5404586 2.0852418 11
-10.798155 1.5927024 2.0808349 11
-10.646343 1.5740497 2.0737834 11
-10.569443 1.5155118 2.0953972 11
-10.432157 1.580484 2.0715041 11.0295
-10.380785 1.5753322 2.0568838 11.028
-10.253376 1.5053824 2.0657382 11.0325
-10.000189 1.5299748 2.0526195 11.029
-9.3872223 1.5386373 2.0273795 11.5
-8.9427137 1.59769 2.0074873 12.045
-8.8882275 1.5127778 2.016799 11.6
7.9154019 1.5920984 2.0602188 13.149
-11.1171 1.6319971 2.0962167 11
-10.961439 1.6394882 2.0892987 11
-10.774236 1.6188173 2.0720277 11
-10.662435 1.6024795 2.0820625 11
-9.210968 1.6742412 2.018892 12.039
-9.0551395 1.6005577 2.0134318 12.042
-8.7983904 1.6204605 2.0032027 12
7.8938856 1.6904088 2.0322027 13.151
7.9485044 1.6928874 2.0793979 14.1385
8.9080687 1.6071804 2.0278895 13.145
-9.8535786 1.7320204 2.0574048 12.0425
-9.7670641 1.7793515 2.0545959 12.019751
-9.6062222 1.7550869 2.0467868 12
-9.1265335 1.7671021 2.0000043 12
-8.9112778 1.7839454 2.01196 12
-8.8401337 1.7835714 2.0066409 12.0275
7.8517222 1.7665318 2.0509739 13.639999
-10.545634 1.8753002 2.0967562 12.0455
-10.068015 1.8399087 2.080622 12
-9.7777948 1.8460213 2.0429025 12.032
-9.6090212 1.8853189 2.0445867 12
-9.5965014 1.838374 2.0251474 12
-9.421979 1.8116268 2.0195503 12
-9.3454266 1.8628936 2.0210478 12
-9.205822 1.8598694 2.0048985 12.0265
-9.1992216 1.835235 2.0216312 12.028
-9.05688 1.8390191 2.0006523 12
7.8495011 1.8929652 2.0667686 14.149
-10.818595 1.9366891 2.0824733 12
-10.619466 1.9959053 2.0743194 12
-10.547112 1.9131677 2.0925798 12
-10.232867 1.9154919 2.0665984 12.0325
-9.959981 1.9553694 2.0478988 12.02825
-9.654501 1.9220104 2.0165124 12
-9.5568304 1.9075466 2.0261941 12
-9.4257507 1.9348514 2.0184982 12.666667
-9.3440609 1.930697 2.0440505 12.583334
-9.1463757 1.9967955 2.0064538 13
-8.9869108 1.9273278 2.0220881 13.042
-8.8115253 1.9006697 2.0116348 13.045
-8.7556515 1.9540132 2.0080469 13
-8.5060253 1.9361385 2.0056529 13
8.9443092 1.9107337 2.0651779 13.1505
-10.912591 2.0987334 2.0881987 12
-10.758054 2.0171411 2.0873857 12
-10.650542 2.0540524 2.0832222 12
-10.370593 2.0144389 2.0709319 12.028749
-9.1714668 2.0226254 2.021066 13.039
-8.8745289 2.0056756 2.0278509 13
-8.1033764 2.0121114 2.0179012 14.047
8.0556383 2.0365391 2.0064011 15.1295
-9.7351427 2.1351879 2.0533779 13.0395
-9.6762638 2.1584983 2.0744846 13
-9.130743 2.1487584 2.0102482 13
-8.858736 2.1731629 2.0080523 13.01375
7.9823489 2.1159782 2.0965085 15.1275
-10.095116 2.2392349 2.0944576 13
-9.7176704 2.2360468 2.0614624 13.032
-9.5824146 2.263761 2.0358274 13
-9.4274654 2.2029243 2.0303111 13
-9.3560352 2.2549183 2.0380573 13
-9.1594925 2.2693851 2.0195873 13.3655
-8.7086172 2.2884278 2.0124116 14
-8.5162048 2.243315 2.0018804 14
-8.4992809 2.2811947 2.0139418 14
-7.7482133 2.2193484 2.0088332 15.047
-10.172738 2.3205483 2.0815668 13.0325
-9.938365 2.3846314 2.0491455 13.02825
-9.620903 2.3164752 2.0483999 13.5
-9.5687103 2.3373191 2.0327287 13
-9.362237 2.3175287 2.0311668 13.222222
-9.2419624 2.3687463 2.0196214 14
-9.1107044 2.3679848 2.0291214 14.039
-8.8771629 2.3652406 2.0360646 14
-8.6769247 2.3623562 2.0117826 14.545
-10.751265 2.4501486 2.0923834 13
-10.57581 2.4171047 2.0837183 13
-9.4543056 2.4196594 2.0368509 14
-9.3167028 2.4318593 2.0422256 14
-10.868301 2.5604949 2.0914133 13
-10.711395 2.5010278 2.0567002 13
-9.5529051 2.5160592 2.0877061 14
-9.1754656 2.5446076 2.0208945 14
-8.8521023 2.562742 2.0210953 14
-8.79286 2.5609972 2.0128255 14.0275
-8.4773932 2.5752501 2.0124376 15
-8.1085529 2.5328844 2.0074165 15
-8.0938482 2.5293341 2.0039842 15
-10.717431 2.6998556 2.0779037 14.0455
-9.4369812 2.6009691 2.0373082 14
-9.3464718 2.6650257 2.041563 14
-9.1343708 2.657356 2.0312819 14.02725
-9.0177317 2.6270471 2.0405779 15.042
-8.8565578 2.6303296 2.0086021 14
-8.6390772 2.6187296 2.0233545 15
-8.4498415 2.6200044 2.024899 15
-10.701555 2.7729564 2.0578938 14
-9.5777884 2.7728715 2.0382719 14
-9.3486013 2.742908 2.0352106 14.5
-9.2143345 2.7748036 2.0510459 15
-9.1828957 2.7107615 2.0245743 15
-9.0553846 2.7164154 2.037447 15.039
-8.8578396 2.7246079 2.0494144 15
-8.7706175 2.7095623 2.0091887 14.666667
-10.688416 2.8810601 2.0287502 14
-9.5132723 2.8939178 2.0915883 15
-9.4227514 2.8312142 2.0673182 15
-9.2913027 2.8366318 2.0741689 15
-8.9144678 2.8728585 2.0232291 15
-8.4197388 2.873744 2.0084548 15.027
-13.600314 2.9338417 2.0439861 13.0395
-13.088394 2.9672544 2.0263033 13.0305
-10.693524 2.9538226 2.0514708 14
-9.38517 2.9897358 2.0507078 15
-9.1277809 2.925868 2.0340967 15
-8.9242029 2.991565 2.0352006 15.02775
-8.8195267 2.9570346 2.0295124 15
-13.652151 3.0396919 2.0843909 13
-10.684402 3.0500677 2.0519333 14.52275
-9.481534 3.014503 2.0491967 15
-9.3115835 3.0732961 2.059279 15
-8.9403267 3.0665936 2.0267954 15
-10.611531 3.1601946 2.0568771 15
-10.506685 3.1631114 2.0144167 15
-9.9882107 3.126754 2.0334692 15.032249
-9.5514212 3.1319163 2.061131 15
-9.2803125 3.1441593 2.040184 15
-9.1171398 3.1084056 2.023818 15.0265
-9.8491745 3.244297 2.0718985 15.02825
-9.5359516 3.2030005 2.0499549 15
-10.244152 3.3683257 2.0830326 15.028
-1.2212243 -0.79275173 2.1698871 4
3.1882761 -0.75059205 2.1933532 1
3.1718357 -0.57988304 2.16506 2.5
-1.3280144 -0.24853204 2.1554346 2.5999999
-1.1965866 -0.23800929 2.1029294 2.5
-1.8664504 -0.0089351702 2.1683149 7
-1.8770704 0.0079674786 2.1536148 7
9.7564478 0.043813318 2.1183271 8.1339998
-2.071281 0.16318467 2.178725 8.9751329
-1.9083182 0.1405151 2.120955 8.4023333
3.3679674 0.20081112 2.1284449 10.13475
11.703876 0.47842112 2.1436145 9.1297503
11.762791 0.50964034 2.1637571 9.1442499
8.1876183 0.88322103 2.1052878 11
8.2426157 0.89414513 2.1547186 11.14525
8.4051514 1.0191554 2.1315274 11.148
-11.162507 1.1649816 2.1306791 10
-10.954929 1.1537082 2.1016655 10
8.3034163 1.1982266 2.134645 12.14525
-12.218912 1.2886717 2.1675434 10
-11.756903 1.2421707 2.1412263 10
-11.559359 1.2023598 2.1332579 10
-11.374625 1.2037462 2.1216998 10
8.1781445 1.2468088 2.1581213 12
-12.677905 1.3349555 2.1943042 10
-12.489556 1.3159515 2.1835074 10
8.172061 1.3000807 2.1963396 12.5
8.7672958 1.3268094 2.1502542 12.128
8.0322285 1.4500285 2.1282005 12.576
8.1497059 1.486425 2.1318979 13
-11.053055 1.5741707 2.1302414 11
-10.914997 1.5645084 2.1077271 11
-10.874971 1.5516589 2.1182301 11
7.9294333 1.5078659 2.1698766 13
8.3573561 1.5830576 2.1993644 13.127501
-11.713225 1.671964 2.1501746 11
-11.69674 1.656143 2.1604419 11
-11.447124 1.6827179 2.1189206 11
-11.396738 1.6885494 2.1130333 11
-11.262975 1.6277047 2.1290052 11
-11.174953 1.6635016 2.1007133 11
-10.920046 1.6293796 2.1034236 11
7.8922367 1.6798261 2.1622863 14
8.1691103 1.6492828 2.146414 13.333333
-12.595136 1.7911352 2.1980968 11
-12.442551 1.7609251 2.1913447 11
-12.313778 1.7804503 2.1616902 11
-12.295815 1.7326194 2.1966236 11
-12.123967 1.75779 2.1601083 11
-12.073492 1.7041762 2.1843379 11
-11.875525 1.7259132 2.1359801 11
-11.708102 1.7237357 2.1427655 11
-11.693384 1.7223207 2.1271391 11
7.8694267 1.7581601 2.1678414 14
7.9811645 1.7464589 2.188169 14
-12.618768 1.8272887 2.1757839 11
-12.441764 1.8104653 2.1718338 11
-10.40204 1.8928206 2.1068163 12
-10.938221 1.9789414 2.1217637 12
-10.772113 1.9523304 2.1172659 12
-10.486819 1.9067446 2.1010997 12
-11.671526 2.0969133 2.1688633 12
-11.472198 2.069344 2.1450725 12
-11.312871 2.0391808 2.1465268 12
-11.248712 2.0316556 2.1270833 12
-11.053658 2.081919 2.1064379 12
-10.793576 2.0611887 2.1014204 12
7.8561325 2.0571356 2.1715698 15
-12.205725 2.1215973 2.1784201 12.0435
-12.13472 2.1768682 2.1830492 12
-11.903564 2.1965249 2.1441784 12
-11.727695 2.1126347 2.1591029 12
-11.673188 2.1943705 2.1437407 12
-11.519925 2.1361337 2.126348 12
-11.357677 2.1543875 2.1210163 12
-11.240656 2.1457713 2.1053514 12
-12.281219 2.2562182 2.1616235 12
-12.082712 2.2625461 2.1562972 12
-11.664541 2.2070899 2.1268544 12
-10.362741 2.2909241 2.109061 13
-12.761317 2.3687091 2.1870971 12.0305
-12.606078 2.3374612 2.1904283 12
-12.554537 2.3183784 2.1756849 12
-12.414791 2.3077304 2.1863899 12
-12.386326 2.3125224 2.1642222 12
-10.911171 2.3819923 2.1227517 13
-10.693529 2.3547943 2.1326852 13
-10.56035 2.3235774 2.1146526 13
7.9663568 2.3557291 2.1759052 15.1505
-11.396298 2.4887352 2.1500719 13
-11.249595 2.4608946 2.1513915 13
8.0600462 2.4745674 2.1005211 15.152
-12.103217 2.5533097 2.1842158 13.0435
-11.880182 2.5876088 2.1803865 13
-11.717026 2.5548515 2.1796498 13
-11.664479 2.5436726 2.160851 13
-11.476114 2.5471354 2.15539 13
-11.147744 2.5245929 2.1207693 13
-10.923727 2.5366483 2.1125398 13
-10.893229 2.5309267 2.1130424 13
-12.160787 2.6452196 2.191838 13
-11.910301 2.6698747 2.1570415 13
-11.728149 2.6841106 2.1580577 13
-11.325123 2.6247935 2.1301715 13
-12.492832 2.7811728 2.1943293 13
-12.254189 2.7357333 2.1744719 13
-12.122855 2.7691283 2.1715236 13
-11.713617 2.7081995 2.1444035 13
-10.891999 2.7671306 2.1032572 14
-12.46806 2.8419089 2.1945939 13
-12.379137 2.8158953 2.1842942 13
-11.239101 2.8955541 2.1567633 14
-10.960327 2.8301587 2.1393399 14
-10.792247 2.8492229 2.1172624 14
-16.722841 2.9766245 2.178009 12.033
-13.651121 2.9555559 2.1012206 13
-12.061562 2.998668 2.1851995 14.0435
-11.484646 2.9482286 2.167388 14
-11.100658 2.9675946 2.120173 14
-10.926865 2.999018 2.1212039 14
-10.750707 2.960721 2.1183257 14
-13.651743 3.0513158 2.123095 13
-12.106504 3.0980551 2.1908484 14
-11.732222 3.011477 2.1843367 14
-11.510188 3.0589774 2.143712 14
-11.279117 3.0746315 2.1431131 14
-10.92922 3.0467696 2.1051416 14
-10.778675 3.0149319 2.107193 14
-11.855017 3.1364477 2.1612878 14
-11.685441 3.1628647 2.1627741 14
-11.275008 3.1240728 2.1501589 14.25
-10.755006 3.1474993 2.116128 15
-10.615308 3.1839356 2.1356652 15
-12.461089 3.2731886 2.1935143 14
-12.259811 3.2274783 2.1860423 14
-12.149489 3.264468 2.1829906 14
-12.075603 3.2848976 2.1721067 14
-11.672962 3.2005694 2.1495256 14
-10.942484 3.2478919 2.1427982 15
-10.882213 3.2536812 2.1620624 15
-10.711673 3.2088592 2.1487355 15
-10.420835 3.2515144 2.1029763 15
-12.45656 3.3659129 2.1846366 14
-12.363497 3.3286819 2.1896307 14
-11.348209 3.3685017 2.1807995 15
-11.23225 3.3274612 2.1649008 15
-10.64784 3.3538899 2.1212323 15
-10.440945 3.3474271 2.1132622 15
-10.269703 3.3143454 2.1035399 15.0295
-11.940585 3.4265382 2.1932416 15.0435
-11.697996 3.4562774 2.1864872 15
-11.135678 3.4343193 2.14432 15
-10.937211 3.469768 2.140142 15
-10.786934 3.4953141 2.1142902 15
-10.541802 3.4366634 2.1074786 15
-10.3882 3.400038 2.1033363 15
-11.539043 3.5389132 2.1591716 15
-11.318274 3.5644813 2.1607113 15
-10.89954 3.5207956 2.1319923 15
-12.123187 3.6900434 2.1961708 15
-11.864922 3.662724 2.1807501 15
-11.648735 3.6460361 2.1903858 15
-11.56669 3.6263807 2.1758924 15
-11.463779 3.6562877 2.1575661 15
-11.278708 3.6119654 2.1466436 15
-12.258586 3.7255859 2.1997952 15
-12.124267 3.7672 2.1996984 15
-11.713565 3.716836 2.1683145 15
-12.160468 3.8255668 2.1898389 15
3.1749585 -0.66673118 2.2980487 1.75
9.4231348 -0.63321584 2.2576771 6
-1.6649133 -0.42586112 2.2918105 0.5
-1.5538278 -0.33009464 2.2722886 4.5
3.1911156 -0.33948576 2.2904139 4.75
3.2288363 -0.36994022 2.2142634 4.5
-1.5323801 -0.24038313 2.2321229 2.9722223
-1.4577099 -0.29841 2.2560689 5
-0.042859763 -0.23236954 2.2010393 2.5
-1.9550518 -0.13012989 2.2696948 5.2142859
-1.8119787 -0.1931117 2.2894192 5.6666665
-1.5343925 -0.11733081 2.2012715 5
-0.021825552 -0.12132459 2.2187858 4.6666665
0.099002242 -0.18144569 2.2327688 3.4000001
0.24037644 -0.12137113 2.2965279 4.5
-6.6121969 -0.06042375 2.2706246 7
-1.9751185 -0.071687929 2.2180066 6
-1.9322704 0.078612968 2.2269518 8
9.5911045 0.0068123098 2.2681372 8.1297503
9.7975855 0.045151368 2.292474 8.1335001
9.8637838 0.05108555 2.2374439 8.1331253
-2.0378199 0.15121198 2.2258229 8.6947498
0.019785151 0.11435406 2.2928469 9.6000004
0.2490671 0.10592874 2.2949214 9.5
-2.1189876 0.25056174 2.2536421 9.3183746
-0.12771633 0.28613108 2.2474823 12.822001
-0.11545548 0.33201295 2.288146 14
3.5023756 0.39083791 2.2537594 11.63375
12.497724 0.59399879 2.2951913 9.1455002
8.1963873 0.8717162 2.2817211 11
8.1706724 0.92396283 2.2522151 11
8.1385365 1.0934153 2.2489409 11.1515
8.3531914 1.0628268 2.2974987 11.1495
8.3021326 1.1948671 2.2828927 12.12875
8.0405235 1.2804456 2.2742243 12.416666
8.3922186 1.2126344 2.2606044 12.133
8.1618767 1.3778756 2.2544317 12.8885
7.9803896 1.4611536 2.2157748 13
8.119873 1.4276177 2.2640247 12.1515
8.2332191 1.4103751 2.2151766 13.1355
9.0732832 1.490085 2.2352033 12.1485
-14.966405 1.5161743 2.259017 10
8.3515539 1.503682 2.2549839 13.133
8.0109138 1.6560282 2.2075822 14.1355
-12.61767 1.7739921 2.2080235 11
7.8718452 1.7352828 2.2476184 14
7.9356432 1.7135286 2.2246032 13.899834
-13.484233 1.8418617 2.2344494 11.044
-13.163602 1.8640112 2.2201648 11.035
-13.007837 1.8575102 2.2056975 11.03675
-12.921302 1.8127476 2.2299864 11.0395
8.8885117 1.8198646 2.2503562 13.14875
-14.123728 1.9681206 2.285965 11
-13.96382 1.9881454 2.2417636 11
-13.74268 1.9462461 2.2458496 11
-13.622261 1.9450722 2.2195287 11
-13.510663 1.9379759 2.226912 11
-13.397628 1.9206346 2.2089319 11.031
7.8644204 1.9957731 2.208467 15.0665
7.9288583 1.9249978 2.2043209 15.1355
9.022892 1.9067715 2.2286229 13.15
-14.838869 2.0893841 2.2903695 11
-14.710875 2.0743454 2.2773247 11
-14.648951 2.0749705 2.2807035 11
-14.328199 2.0344057 2.2566099 11
-14.084545 2.0000489 2.2495136 11
7.875288 2.0660191 2.2260044 15
9.3160162 2.0068464 2.2443573 14.144
-14.950739 2.1078978 2.2959979 11
-12.95647 2.2971077 2.2125852 12.04375
-12.883023 2.2933969 2.2276623 12.0395
-12.528493 2.2421403 2.208487 12
-12.405169 2.2158594 2.2023885 12
8.9237099 2.2520721 2.298737 14.15
-13.333493 2.309062 2.2430754 12.044
-13.117132 2.3657751 2.2232823 12.035
-12.947653 2.3971083 2.2164655 12.032
-14.031677 2.4817777 2.2792633 12.021
-13.801275 2.4982836 2.2378983 12
-13.780723 2.4622786 2.2655659 12
-13.653708 2.4199734 2.2551646 12
-13.547846 2.4399962 2.2420325 12
-13.350222 2.4563432 2.2162037 12.031
-14.346254 2.5856605 2.2683153 12
-14.054626 2.5541794 2.2542446 12
-13.882289 2.5360537 2.2506185 12
-13.675413 2.5041373 2.2260439 12
-14.859982 2.6805861 2.283457 12
-14.705185 2.6435537 2.2824187 12
-14.652514 2.6508999 2.2829795 12
-14.296729 2.607615 2.2729774 12.033
-12.338755 2.677053 2.210331 13
-12.096611 2.6291542 2.2048693 13
-12.448914 2.7013085 2.2167344 13
-13.670135 2.8781817 2.2474222 13.04575
-12.535372 2.833946 2.2041135 13
-16.766144 2.9660623 2.237051 12.0205
-16.223259 2.9163127 2.2389808 12.034
-13.892262 2.9786437 2.278101 13.042
-13.792031 2.9539406 2.2705173 13
-13.68 2.9506009 2.2526984 13
-13.926274 3.077306 2.2732904 13
-13.765358 3.0576069 2.2461629 13
-14.57303 3.1160028 2.2991405 13
-14.323688 3.1363711 2.2782111 13
-14.220081 3.1589096 2.2875762 13.033
-14.060617 3.12679 2.2721591 13
-13.922892 3.1065032 2.2552509 13
-12.618649 3.1678588 2.2142162 14.046
-12.423729 3.1753075 2.2247622 14
-12.373672 3.1623421 2.2070022 14
-12.118488 3.1044552 2.2106154 14
-14.58727 3.2282867 2.2943316 13
-12.750353 3.2415156 2.2300413 14.040501
-13.435504 3.3257489 2.2703757 14.044
-13.026351 3.3788567 2.2314143 14.035
-12.495419 3.3401096 2.205266 14
-13.818918 3.4832263 2.269974 14.021
-13.698507 3.4722941 2.2931473 14
-13.59504 3.4573607 2.2739573 14
-13.41089 3.4049439 2.2815552 14
-13.376293 3.404428 2.2619104 14
-12.84256 3.4234104 2.2315507 14.032
-12.655023 3.4082782 2.2065563 14.0305
-11.714304 3.4748471 2.2036314 15
-13.890972 3.5988245 2.2708583 14
-13.504005 3.5103605 2.2491236 14
-13.421976 3.5455475 2.2491097 14
-13.36917 3.5602343 2.2367525 14
-13.252564 3.5366349 2.2289701 14.031
-12.244929 3.5398932 2.2171044 15.046
-12.107753 3.5798376 2.2247529 15
-12.07165 3.559628 2.2082775 15
-14.301539 3.6933656 2.2857747 14
-14.028871 3.681124 2.2797012 14
-13.994694 3.6950893 2.2693181 14
-13.862276 3.6663809 2.2634869 14
-13.71761 3.6112866 2.2673373 14
-13.648995 3.6205666 2.2495804 14
-12.639745 3.6958315 2.2307203 15.0415
-12.346381 3.643918 2.2327614 15
-12.259489 3.6117465 2.2170105 15
-14.164647 3.7179518 2.2917385 14.033
-12.651019 3.7252302 2.2516487 15.0395
-12.377629 3.7563758 2.2097631 15
-13.300251 3.8002467 2.2770929 15.044
-12.916024 3.8741667 2.2545743 15.035
-12.444823 3.8486414 2.2133307 15
-12.346642 3.8468542 2.2082267 15
-13.676575 3.9736552 2.2788677 15.021
-13.40451 3.9277785 2.296253 15
-13.350848 3.9149485 2.278405 15
-12.768527 3.9370124 2.2461872 15.032
-12.612185 3.9376113 2.2102184 15.0305
-13.470411 4.0434794 2.2621083 15
-13.34663 4.0785475 2.264504 15
-13.185479 4.0790443 2.241612 15.031
-13.794024 4.1283293 2.2875566 15
-13.363532 4.1216521 2.2534332 15
-2.1609128 -0.78000563 2.3207343 0
9.4108601 -0.61573535 2.3575995 6
8.8521461 -0.56517845 2.3764005 6
9.332242 -0.59663099 2.3243203 6
-2.0139816 -0.43457621 2.3645923 1.3333334
-1.7094513 -0.43147418 2.341017 4
3.2491715 -0.42962271 2.3863595 4
-2.0566883 -0.38967308 2.3588333 2
0.24751973 -0.21272177 2.304563 2.5
8.8789978 -0.26561436 2.3898079 7
-1.7016426 -0.19820783 2.3054233 4.5
-1.9308794 0.066047028 2.3352342 8.0336246
8.8891573 0.032351561 2.3973515 8
8.9158916 0.035096575 2.3754048 8.0644999
9.7732439 0.025423255 2.3315639 8.1435003
-2.0760427 0.17451438 2.3872938 9.6240711
-1.9632853 0.12991786 2.3844738 8.666666
0.10621673 0.19983622 2.3222959 11.484065
0.0024127364 0.28543505 2.3574352 13.5
0.10101581 0.20411244 2.3136652 11.647058
0.21096161 0.28528327 2.3058791 13.4
8.9279995 0.37375847 2.3798933 9
9.0690899 0.3509185 2.3425992 9.1374998
-5.9989176 0.41033992 2.3212495 9.0410004
8.9644451 0.48691845 2.3868012 9.6289997
11.698202 0.41917205 2.3617349 9.1304998
11.725128 0.4487198 2.3854644 9.1380005
9.0083876 0.5530768 2.3870161 9.6407499
11.862258 0.56729591 2.3664827 9.1459999
8.9183292 0.67955703 2.3724084 10
-5.9076624 0.76035345 2.3913341 10.0235
8.1253729 0.87720144 2.3695724 11
8.1621418 0.92390454 2.3271604 11.07075
8.2523355 0.99150169 2.3895397 11.1475
8.9564743 1.0105298 2.3449044 11.070499
8.2386351 1.1723604 2.3375535 12.1375
8.0761833 1.2374638 2.3474312 12
8.1432619 1.207166 2.3663287 12
7.9553838 1.4415921 2.3408997 12.916667
8.0725756 1.4435129 2.3934069 12.875
8.3776159 1.4491491 2.3815436 12.15075
-15.148401 1.5695672 2.306808 10.0335
7.9816618 1.5210534 2.322319 13
8.319705 1.5043622 2.360873 13.1285
-15.995884 1.6474812 2.3405747 10.034
7.8869534 1.6865472 2.386605 14
8.5900049 1.6729711 2.3935575 13.147
7.8582649 1.755403 2.3188772 14
8.0093298 1.7676358 2.3073123 14
7.9143496 1.8015647 2.3889103 14
7.8894196 1.9714336 2.3608348 15
8.4409266 1.9151142 2.3837407 14.1465
-15.056211 2.0889485 2.3382096 11
-14.827244 2.0592227 2.3263404 11
-14.51298 2.0184746 2.3097324 11
7.8555856 2.028429 2.3262024 14.71725
7.9021544 2.0363958 2.392051 15
8.2078381 2.0367255 2.3943677 14.1495
-15.68349 2.1822412 2.3466535 11.0365
-15.452446 2.1642878 2.3180971 11.0325
-16.257174 2.2612598 2.3523932 11.033
-15.928038 2.2505431 2.3453546 11.034
-17.141836 2.3683703 2.3981261 11.0335
-16.83671 2.3588905 2.3964682 11
-16.732391 2.3161235 2.3945518 11.037
-16.639149 2.3338304 2.3927784 11
8.2300348 2.3830819 2.3807917 15.1495
8.0332575 2.4343607 2.3310332 15.1515
8.57833 2.4618099 2.350544 15.149
-15.063149 2.5973308 2.3358755 12.0445
-14.744482 2.5980287 2.330457 12
-14.554063 2.566854 2.3153615 12
-14.323193 2.5288157 2.3102002 12
-19.746021 2.6905911 2.3320303 11.0345
-15.303905 2.6983123 2.3360424 12.0425
-14.939379 2.6299098 2.3487315 12
-14.890281 2.6944196 2.3056321 12
-14.751431 2.6283603 2.3205993 12
-14.527308 2.6363342 2.3109083 12
-19.813524 2.7459009 2.3953097 11.0435
-19.798578 2.738219 2.3662772 11
-19.639891 2.7236321 2.3298516 11.0355
-15.589936 2.7613931 2.3576894 12.0365
-15.405291 2.7670949 2.317935 12.0325
-15.017249 2.7205691 2.3187299 12.0335
-16.790781 2.9570897 2.3671231 12.037
-13.830221 2.9716074 2.3018956 13
-14.439371 3.0928881 2.3293695 13
-14.136602 3.0326271 2.3138211 13
-14.848539 3.1743557 2.3540859 13
-14.631672 3.1426425 2.3358662 13
-15.36472 3.2131233 2.3610587 13.0445
-15.182266 3.24336 2.3412395 13.0425
-14.811234 3.2698817 2.3012576 13
-14.752316 3.2367697 2.3105202 13
-14.582442 3.2213385 2.3079748 13
-15.528903 3.3473439 2.3634138 13.0365
-15.315163 3.364454 2.3365259 13.0325
-14.960271 3.3001277 2.3248448 13.0335
-14.06302 3.5574253 2.3171341 14
-14.492646 3.6494148 2.3746345 14
-14.384437 3.6329803 2.3281398 14
-14.491538 3.7358489 2.3192158 14
-13.764645 4.0248055 2.3176095 15
-14.453825 4.1873894 2.3550608 15
-14.253948 4.1570778 2.3428822 15
-14.034894 4.1424522 2.3567004 15
-13.681539 4.1572795 2.3823037 15
-13.590392 4.1703258 2.3574419 15
-14.440028 4.2072496 2.3574209 15
-1.3035879 -0.77135271 2.4288607 1
-0.18766171 -0.79982817 2.4421692 2
9.4637995 -0.58994693 2.4911537 6
-2.0061002 -0.46217668 2.4478598 1.5
-1.9259343 -0.25534147 2.4485259 4
8.8641958 -0.27028507 2.4408004 7
8.9053679 -0.2266019 2.4527171 7
-1.9794064 -0.16839269 2.4511137 5.2142859
-1.9446048 -0.0096460208 2.4744637 7
-1.9407691 0.085211582 2.4472375 8.0340004
8.8759384 0.046769779 2.4468627 8
8.9599934 0.090256758 2.4973755 8.1405001
9.9342546 0.064263456 2.4499681 8.1280003
-1.9771729 0.13937622 2.4634533 8.8500004
-6.0035553 0.33540061 2.4810052 8.5
0.12769875 0.3090921 2.4430022 14.433321
8.8907223 0.35162708 2.4546914 9
8.9216595 0.37465045 2.4583127 9
8.8999214 0.47995681 2.4242117 9.5
8.9075546 0.54503012 2.4597874 9.583334
11.738546 0.51605916 2.4491887 9.1397495
8.8859415 0.6571486 2.4174373 10
-5.8747592 0.70239186 2.4319601 10.0275
8.9262962 0.7092821 2.4024899 10
8.888835 0.84212035 2.4771366 10.5
8.9193125 0.84211439 2.4685609 10.5
8.9303799 0.95753706 2.4441905 11
8.9230642 1.0272379 2.481735 11
8.0894337 1.1922574 2.4451289 12
8.3333492 1.1017301 2.4122944 11.15075
7.9857597 1.2347549 2.4122095 12
8.1370001 1.2629703 2.4414988 12.2615
8.0662775 1.3585093 2.4586937 12.3
8.1968956 1.3695557 2.4010434 12.1495
8.3954821 1.3893021 2.4662728 12.149
8.7727165 1.3467674 2.486002 12
8.8674679 1.3585049 2.4637194 12
8.0000563 1.4220408 2.4287586 13
7.8942585 1.5431517 2.4137197 13
8.6982803 1.554947 2.4073982 13.144
7.8899579 1.6946831 2.4628215 13
7.9224 1.6418041 2.4521959 13.8
8.7635517 1.6543067 2.4259548 13.146
8.9313107 1.6570526 2.4625764 13.07025
7.9308996 1.7248946 2.4596934 13.57575
8.8990736 1.7219131 2.4205623 13.1465
7.8854952 1.8186074 2.4353759 14
7.9001079 1.8514403 2.4125781 14
7.8898635 1.9010152 2.4926219 15
7.9436803 1.9663073 2.4465394 15.034291
8.6908531 1.9619893 2.4527104 14.146
8.9215508 1.9528936 2.4843788 14.1405
7.9375782 2.026824 2.4655378 14.5
8.0989122 2.0597925 2.4375806 14
8.9416447 2.0095005 2.4419134 14
7.9263749 2.1331146 2.4379468 15.042084
8.9581795 2.2929609 2.4722652 15
8.9451494 2.3465624 2.4537165 15.048584
8.6900282 2.552361 2.4639521 15.15
-19.829479 2.7407849 2.466085 11
-16.814167 2.9594481 2.4135673 12.04475
-17.199547 3.0032122 2.4563146 12.0415
-17.052744 3.0203013 2.4083514 12.0335
-15.7642 3.35727 2.4017608 13.041
-15.854887 3.4606361 2.4582157 13.033
-14.474503 3.5740216 2.4565091 14
-14.466562 3.6498423 2.4401414 14
-14.473517 3.7631168 2.4322202 14
-14.441769 4.1446028 2.4238644 15
-14.018807 4.178061 2.4601908 15
-13.714516 4.1618958 2.4357343 15
-14.399683 4.2044768 2.4427447 15
-2.419816 -0.74417835 2.592133 1
-0.76568848 -0.7957893 2.5541668 2
-1.2705944 -0.60838932 2.5835507 1
9.3730488 -0.56099361 2.5015063 6
-3.6800411 -0.46079364 2.5525527 5
-2.009033 -0.4662537 2.5185874 1.5
-1.6564405 -0.45872223 2.5130048 0.66666669
-1.0474892 -0.30878392 2.5932407 2
-1.1063952 -0.22831641 2.585206 3
-1.0511663 -0.26738894 2.5823474 1.5
-1.9864801 -0.13134739 2.5405192 5.3333335
-1.1468672 -0.14339986 2.5658035 4.75
-1.9798523 -0.040151469 2.5962074 6.5
-1.0993936 -0.073933929 2.5820901 5.1999998
-5.8122125 0.011481446 2.5896182 7
-1.9713365 0.045716953 2.5697083 7.6666665
-1.1055229 0.051111992 2.5835519 8
-1.0799686 0.050257929 2.5914488 8
8.891449 0.037526932 2.5331855 8.06425
8.9478979 0.0446475 2.5126405 8.1324997
9.9939308 0.098552421 2.5376985 8.1400003
-5.0840869 0.15664291 2.5956807 8.0262499
-2.0124304 0.17402139 2.5782583 9
-1.9860165 0.1427089 2.5448911 8.5799198
-6.0092602 0.2254688 2.5938282 8.0550003
-5.0845571 0.27515113 2.5958805 8.5325003
-2.0729399 0.25479749 2.5572104 9.6801357
-5.8084764 0.43640023 2.541976 9
8.9403448 0.45444247 2.5215349 9.3882504
11.726439 0.48958829 2.5706182 9.1287498
11.778996 0.50938112 2.5838764 9.1432495
-5.8319807 0.64765501 2.5543904 10.018625
8.936038 0.66727233 2.5110033 10.1325
-5.9301257 0.76744461 2.5217767 10.02225
8.2683277 0.89356637 2.5140851 11
8.3399448 0.89620149 2.502275 11.144
8.1601067 0.96320915 2.547008 11
8.1694307 1.1660058 2.5484011 12.144
8.3574324 1.1904435 2.5651503 12
8.0777874 1.243489 2.5339546 12.07325
8.1042233 1.2047695 2.5843775 12
8.1595554 1.3254972 2.5662894 12.5
8.0584784 1.4463822 2.5406251 13
7.9965653 1.515335 2.5519657 13.1465
7.8676739 1.6870059 2.5003901 14
7.9349122 1.6794641 2.5453541 13.72735
8.0284204 1.663409 2.5145888 13.1495
8.9515095 1.657184 2.5123067 13
9.3286018 1.6592462 2.5718682 13.143
7.9598923 1.7458788 2.5547545 14
8.0760736 1.7313242 2.5698655 13.64725
8.9846792 1.726208 2.5567918 13.146
8.9312458 1.802647 2.5239773 13.148
9.7830696 1.8596487 2.5761945 13.145
9.9529696 1.8538055 2.5915117 13.1445
6.7576575 1.9051715 2.5703137 15.1495
8.8668175 1.9902631 2.5009904 14
8.9558039 1.9613301 2.5125256 14
-20.318157 2.0499976 2.5578084 10.036
7.9112301 2.062603 2.5416737 15
8.1220856 2.0399926 2.5619116 15.144
9.2678108 2.0259941 2.5988252 14.14
8.0411911 2.125483 2.5351644 15.1465
8.9623871 2.4052324 2.5689344 15.146
10.040721 2.5112903 2.5880153 15.1425
-20.358582 2.7630365 2.5483899 11.035
-20.192724 2.790947 2.5679584 11.036
-16.105736 3.3614435 2.5890419 13.045
-15.829581 3.3987181 2.5855613 13.037
-15.793713 3.4538572 2.515573 13.03425
-20.226542 3.5165348 2.5623913 12.035
-20.101934 3.5356989 2.5699248 12.036
-21.134058 3.6585164 2.5753036 12
-14.484914 3.6488681 2.5639033 14
-14.471701 3.7187114 2.5764184 14
-14.452339 4.202518 2.5581992 15
-1.134073 -0.63067621 2.6609499 2.3333333
9.4406738 -0.60567605 2.6236773 6
-2.0190015 -0.51635569 2.6308212 1
-1.286796 -0.51204115 2.6309874 2
-1.1448025 -0.5068199 2.6400073 2.5
9.4657593 -0.58389258 2.6238322 6
-2.0450168 -0.45130724 2.6626768 1.8333333
-1.4273959 -0.42425391 2.6505365 1
-1.3272057 -0.4186193 2.6989236 3
-1.101827 -0.47190535 2.6738918 3
-1.0664235 -0.45451224 2.6528609 1.5
-1.9893467 -0.3093605 2.6639466 3.5
-1.6254835 -0.38669777 2.6416006 2
-1.5068414 -0.34741074 2.6280584 2
-1.4568903 -0.30867934 2.6472473 2.5
-1.2572452 -0.36310676 2.6891487 2.3333333
-1.1826121 -0.3700901 2.6607025 3.6666667
3.1950095 -0.37172264 2.6087129 4.5
-4.9833527 -0.2543512 2.6428792 6
-2.0826073 -0.25827831 2.6834078 4.5
-1.9419218 -0.21069327 2.6737671 4.5
-1.4645207 -0.2061007 2.6111498 4
-1.3593025 -0.25467724 2.6905417 4
-1.0478457 -0.24515776 2.6550946 3.125
-2.0236843 -0.16877654 2.6547091 5
-1.9410113 -0.14608899 2.6251011 6
-1.3782765 -0.19051155 2.6680627 4.4000001
-1.204689 -0.1683102 2.6367049 3.4000001
-1.0703557 -0.18505053 2.6380935 3.8333335
-5.5955877 -0.096595131 2.6722717 6.5
-5.2478089 -0.044982459 2.6727288 7
-1.9676632 -0.077069111 2.6124258 6.6666665
-1.0868018 -0.077133626 2.6317732 6
-5.1844583 0.012347202 2.6417613 7
-1.991852 0.089736074 2.6437795 8.5
-1.1287584 0.032118805 2.6319742 8.0568342
-1.0904533 0.021235207 2.6173997 8.0205002
9.7677927 0.043963261 2.6567416 8.1365004
-5.9679017 0.19108477 2.6773763 8.0345001
-5.4136801 0.16433956 2.6870835 8.0275002
-5.3716364 0.17600526 2.6749039 8
-5.0734472 0.16823426 2.6287353 8
-0.26932934 0.11401206 2.6793642 10
-5.4878616 0.22537147 2.6631157 8.0579996
-5.2116804 0.27984047 2.6863303 8.5
-5.1078753 0.27648348 2.6538062 8.5
-5.0873661 0.27980021 2.6540554 8.3921671
-2.0530541 0.21549258 2.6395416 9.6800833
-0.2907798 0.26680511 2.6776819 14
3.4622679 0.21650459 2.6337624 10.1305
-5.8346071 0.36522555 2.6144962 8.7840004
-5.3129668 0.39438039 2.6972759 9
-5.1200452 0.35480988 2.6002471 9.0415001
-2.1141889 0.30977973 2.6253066 10.5355
-5.8054428 0.45774534 2.6305456 9.05725
-5.7987494 0.43872947 2.6564057 9
-5.4453974 0.43922517 2.6611872 9.0214996
11.724069 0.43944415 2.6791408 9.1359167
11.880971 0.51408643 2.6034052 9.1429996
12.758736 0.56398284 2.6772428 9.1435003
-5.8368073 0.6544416 2.6451828 10.044583
-5.7880445 0.65913272 2.6742003 10
12.832592 0.60539401 2.6976738 9.1444998
-5.864727 0.74844897 2.6052313 10.024
8.3105297 0.8903929 2.6003809 11
8.2613173 0.95750582 2.6595783 11.070126
8.7927189 0.91615951 2.6056151 10.648
8.2748957 1.0377282 2.6347032 11.14875
8.2253952 1.1510978 2.6421337 12.066999
8.1301003 1.2124716 2.6653743 12
8.2318115 1.2438228 2.6694713 12.137125
8.0143805 1.488963 2.6019917 13
7.9858017 1.549422 2.622252 13
7.9467402 1.6506457 2.610888 14.134
8.2928772 1.6737796 2.6580129 13.627501
9.0735598 1.6600118 2.6180143 13.14
9.1786108 1.6310458 2.6222396 13.1365
8.9841566 1.7975309 2.6857357 13.1475
8.1017475 1.9780399 2.6252036 15.134
8.2321167 1.9051929 2.6301031 14.126
8.9868584 1.9198349 2.650717 14.143
7.506475 2.0494039 2.6094792 15.12525
8.1767445 2.042511 2.6168189 14.14975
8.3949919 2.1029031 2.6473224 14.6465
8.6645365 2.5166764 2.686245 15.1495
9.0421572 2.5259821 2.6542788 15.1475
9.7820139 2.5437336 2.6074512 15.1445
-21.274561 2.8723593 2.6914663 11
-21.275049 2.9160898 2.6609764 11
-21.184933 2.9319537 2.6219959 11.044
-15.916809 3.3635767 2.6321385 13.048
-15.858244 3.3783791 2.6697185 13.04325
-16.105328 3.4209251 2.6313243 13.0415
-15.878677 3.4055154 2.6616514 13
-21.242569 3.6597862 2.6720428 12.015167
-21.05337 3.6804643 2.6213613 12.044
-14.473371 3.6463144 2.6307931 14
-21.24831 3.7412834 2.6632047 12
-14.459209 3.7756708 2.6311374 14.0325
-14.44187 4.1850123 2.6109297 15
-0.87401658 -0.81278098 2.7217059 3
-1.2132776 -0.70427781 2.7817285 2.5
-1.2828749 -0.60355252 2.7599037 1.8333334
9.4350204 -0.62910694 2.7269778 6
-1.5800352 -0.51312268 2.7320206 2
-1.3700446 -0.57324004 2.7507548 1
-1.2234877 -0.57688701 2.7721696 2
-2.1206892 -0.43878841 2.750113 2
-1.8319346 -0.48615175 2.731905 1
