# .PCD v0.7 - Point Cloud Data file format
VERSION 0.7
FIELDS x y z intensity
SIZE 4 4 4 4
TYPE F F F F
COUNT 1 1 1 1
WIDTH 1425
HEIGHT 1
VIEWPOINT 0 0 0 1 0 0 0
POINTS 1425
DATA ascii
-6.74755 2.7115657 23.054947 14
-6.7471056 3.1300516 22.914825 15
-6.7536135 0.56600332 23.26104 9
-6.8650208 2.3942831 23.777874 13
-6.8666868 2.8549447 23.764431 14
-6.8458109 3.3279979 23.795151 15
-6.8545847 2.444732 24.111275 13
-6.8521318 2.912534 24.090145 14
-6.8357506 3.4071701 24.176353 15
-7.0359879 1.0972328 24.512402 10
-7.0295401 1.5701165 24.523163 11
-7.0351944 2.045321 24.511639 12
-6.7808666 2.6526701 25.45982 13
-6.7822571 3.1586654 25.440304 14
-6.7597885 3.6702416 25.429359 15
-6.8391485 1.6843919 25.734238 11
-6.8539076 2.1922662 25.734375 12
-6.7847471 2.6813462 25.632582 13
-6.770339 2.7114162 25.82345 13
-6.7714767 3.2154679 25.739494 14
-6.7534094 3.7381136 25.735504 15
-6.7588348 1.1995424 26.000443 10
-6.7455559 1.7260062 26.17297 11
-6.748374 2.2372315 26.123632 12
-6.7667646 2.7466516 26.038256 13
-6.7416964 2.780581 26.255711 13
-6.7533245 3.2725482 26.041977 14
-6.740202 3.3125877 26.252686 14
-6.7355175 3.8253353 26.130901 15
-6.7317085 1.7612162 26.506742 11
-6.7329035 2.2773428 26.424227 12
-6.7324953 2.3093908 26.656628 12
-6.7353964 2.8249645 26.523693 13
-6.7282944 3.3624408 26.510677 14
-6.7256079 3.8837507 26.392113 15
-6.7145596 3.9368844 26.629131 15
-6.71066 1.7906239 26.788004 11
-6.7010546 2.3337872 26.848042 12
-6.7186241 2.8789721 26.852352 13
-6.7184629 3.424474 26.826771 14
-6.7049856 3.9828379 26.833033 15
1.1422017 -0.68640649 28.514481 6
-6.6165934 2.6562159 29.151438 12
-6.6135211 3.8760095 29.080009 14
-6.48276 2.6665101 29.274961 12
-6.5773163 3.2787871 29.219778 13
-6.4798822 3.2866266 29.304207 13
-6.6002712 3.907584 29.236549 14
-6.505065 3.9033098 29.257214 14
-6.4473357 3.9306169 32.862793 13
-6.6188531 4.6840692 32.857544 14
-6.5945106 5.4473557 32.894131 15
-6.4358006 5.4408712 32.923138 15
-7.0598001 2.5658123 19.717609 15.064
-7.0460835 2.6118696 20.029484 15.06475
-7.0330839 2.6684883 20.394909 15.0655
-7.0082655 2.3599987 20.95295 14.06675
-7.014883 2.7628202 20.969585 15.06675
-6.8095455 2.4879251 21.957102 14.069
-6.8120346 2.9041333 21.944878 15.069
-6.7222605 1.8239745 23.32024 12.0715
-6.8685188 2.3127971 23.538967 13.0715
-6.8001127 2.7416847 23.442387 14.0715
-6.7627478 3.1811924 23.381504 15.0715
-6.8786144 2.3667102 23.886547 13.072
-6.8606844 2.8227873 23.849684 14.072
-6.8764191 3.2959542 23.849213 15.072
-7.309021 1.029108 24.028112 10.0715
-6.8595018 2.4725869 24.581291 13.073
-6.84023 2.946125 24.535831 14.073
-6.8416491 3.4323907 24.516636 15.073
-7.062767 1.55523 24.802326 11.073
-6.819685 2.5212498 24.913574 13.0735
-6.8227167 3.0113726 24.895706 14.0735
-6.8178692 3.5057304 24.87117 15.0735
-7.0214586 1.5876254 25.144808 11.0735
-6.8243952 2.5857806 25.313078 13.074
-6.7978125 3.0762978 25.253649 14.074
-6.8047495 3.5856795 25.24408 15.074
-6.6941595 2.3690124 27.445242 12.0765
-6.7051105 2.9287686 27.438726 13.0765
-6.7060261 3.4904726 27.410126 14.0765
-6.6964855 4.0540476 27.364075 15.0765
-6.6752777 2.4387076 27.94928 12.077
-6.6845675 3.5892034 27.907135 14.077
-6.6880188 4.174367 27.880882 15.077
-6.700139 3.0188117 27.965919 13.077
-6.6580133 2.514792 28.492439 12.0775
-6.6748323 3.1084721 28.494705 13.0775
-6.6609735 3.6953042 28.435848 14.0775
-6.6482601 4.2879381 28.378929 15.0775
-6.6325212 2.5939229 29.054745 12.078
-6.6501064 3.2051337 29.057854 13.078
-6.6157446 3.7990739 28.957447 14.078
-6.4502845 3.3545828 29.979351 13.079
-6.4348998 3.9826963 29.907368 14.079
-6.4353361 4.625174 29.867336 15.079
-6.4499416 2.7232559 30.012188 12.079
-6.4459066 4.1416931 30.651871 14.0795
-6.4080081 4.7847409 30.527447 15.0795
-6.5415945 2.863672 30.936108 12.0795
-6.5108333 3.5119398 30.834007 13.0795
-6.5212736 3.6593535 31.645103 13.08
-6.5058951 3.8041403 32.444202 13.0805
-6.4475846 4.6824746 33.157578 14.081
-6.4405169 5.4283748 33.093483 15.081
-6.4471841 3.9419651 33.212597 13.081
-6.4316893 4.1179333 34.168652 13.0815
-6.4117193 4.8767161 34.056183 14.0815
-6.123847 4.6063781 36.851749 13.083
-6.2348866 5.2431979 40.180866 13.084
-5.8302727 5.3886895 47.346195 12.086
9.7403078 0.019603819 17.154867 7
-7.2394109 0.019000087 15.79499 8
-6.9814506 2.6413789 20.586977 15
-6.9603763 2.6855388 20.881599 15
-6.7667756 0.85852534 21.886166 10
-6.7844367 1.2453727 21.889555 11
-6.7765431 1.6369506 21.921412 12
-6.7860227 2.0383823 21.971607 13
-6.9257007 2.4372838 21.828362 14
-6.7597394 2.4368362 21.98678 14
-6.9184403 2.8576784 21.911884 15
-6.7410283 2.8536825 22.063534 15
-6.732821 2.0908914 22.401222 13
-6.7277427 1.6993445 22.514668 12
-6.7173343 2.5201788 22.534918 14
-6.7220054 0.90585786 22.648636 10
-6.725841 1.3078402 22.638504 11
-6.7113099 2.1489522 22.829058 13
-6.6894889 1.8017319 23.406805 12
-6.9632897 1.0472375 24.545862 10
-6.9744811 1.5053326 24.541178 11
-6.9918218 1.9688069 24.543724 12
-6.7372451 2.4943676 25.087482 13
-6.7235799 2.9685409 25.049833 14
-6.7296948 3.4567132 25.041428 15
-6.9037642 1.6143334 25.661282 11
-6.7064919 2.1048536 25.767162 12
-6.6766515 1.637897 26.006561 11
-6.6621718 3.6553245 25.985023 15
-6.6744847 2.6425934 26.04377 13
-6.6790566 3.1497424 26.027603 14
-6.6351781 2.7913771 26.961365 13
-6.6230736 2.2882392 27.160257 12
-6.5826068 3.33922 27.044884 14
-6.5977893 3.8885934 27.047363 15
-6.3367295 3.1862595 29.381966 13
-6.3445334 3.7908819 29.362455 14
-6.3218246 3.7942619 32.750885 13
-6.4966049 4.5682058 32.944061 14
-6.5951343 5.3197112 32.955528 15
5.7119679 -0.78915685 5.7606745 5
5.8132558 -0.74825478 6.2962494 5
0.82028008 -0.84146345 7.8907337 4
1.6096163 -0.81839931 7.9370875 4
4.5024786 -0.78575671 8.4942846 4
4.8353825 -0.79012471 8.5758057 4
5.1785026 -0.78488123 8.7669525 4
7.7628274 -0.63874048 8.7575684 5
7.8817949 -0.63232768 8.9537897 5
5.2507257 -0.7660296 8.9819946 4
8.0091419 -0.62206203 9.2347574 5
5.6693816 -0.75564456 9.3115053 4
8.1503029 -0.61419237 9.4988708 5
8.3304729 -0.61106497 9.7319183 5
1.5997282 -0.80704468 9.4827023 3
3.6428876 -0.78657931 9.8706436 3
3.8945098 -0.79086626 9.9336472 3
5.9699864 -0.71644056 9.931263 4
8.4527769 -0.599325 10.090498 5
4.2963448 -0.77931744 10.200794 3
4.5532365 -0.77248818 10.391115 3
6.3269567 -0.7117514 10.275188 4
6.5329533 -0.70893872 10.50012 4
8.6188288 -0.59049588 10.47336 5
4.7451811 -0.76557428 10.567593 3
4.9690928 -0.75857627 10.784493 3
6.7275977 -0.70812809 10.711285 4
6.9429855 -0.71109384 10.913309 4
8.7571831 -0.58472723 10.784809 5
3.3566504 -0.78963566 10.810236 2
5.1820698 -0.7583096 10.958426 3
5.3559842 -0.75543118 11.141068 3
7.0817933 -0.70564491 11.168 4
8.907445 -0.5772534 11.192333 5
4.2065268 -0.77114683 11.402695 2
5.5502601 -0.74413806 11.450844 3
5.6363454 -0.73787886 11.613184 3
7.1548753 -0.68840069 11.546382 4
7.2528319 -0.6854068 11.750713 4
4.5883565 -0.76066929 11.805052 2
5.8299832 -0.73892367 11.850368 3
7.3211579 -0.68325603 11.906925 4
4.0816426 -0.76918036 12.244149 1
4.9408975 -0.75373721 12.264391 2
5.9991198 -0.72306508 12.305001 3
3.7676668 -0.7774514 12.618891 0
4.2488861 -0.76701719 12.439077 1
4.4049931 -0.76450926 12.658154 1
5.1154399 -0.74946481 12.555816 2
5.2096181 -0.74753642 12.73583 2
6.0134301 -0.70815337 12.543589 3
6.0315452 -0.70170462 12.68012 3
3.8934793 -0.77538496 12.775689 0
4.0567813 -0.77400827 13.013033 0
4.5911536 -0.75724936 13.0169 1
5.2942524 -0.74244732 12.961345 2
4.2312818 -0.76965249 13.357847 0
4.2983837 -0.7669391 13.534409 0
5.4539075 -0.73968369 13.392912 2
5.5003014 -0.73809379 13.57202 2
-1.962093 -0.87321651 13.380772 1
4.8585057 -0.74760801 13.814191 1
5.5740476 -0.73766339 13.895454 2
-2.4495807 -0.84665978 13.298534 2
-1.7568818 -0.83509165 13.265163 1
-2.0599999 -0.87486756 13.674926 1
4.4474745 -0.76136702 14.167109 0
4.9291253 -0.74561656 14.25547 1
5.6079321 -0.73527235 14.189432 2
4.4788628 -0.76062596 14.614792 0
4.9489946 -0.74551558 14.635633 1
5.6104655 -0.73159075 14.737604 2
4.4425206 -0.75848538 15.00213 0
4.912334 -0.74407691 15.051829 1
5.5746512 -0.73015457 15.084595 2
6.4578562 -0.70191699 15.169282 3
-1.6727408 -0.87052679 15.092129 0
4.3278632 -0.75394994 15.435476 0
4.8302307 -0.74306709 15.441385 1
5.483017 -0.72762161 15.510971 2
6.4461493 -0.70928693 15.570625 3
-2.0806422 -0.86773264 15.393339 1
-1.6080197 -0.86459541 15.32151 0
4.0887475 -0.75155264 15.982386 0
4.1819983 -0.75288433 15.806993 0
4.697649 -0.74189085 15.826704 1
5.3698688 -0.72679502 15.878685 2
6.2841759 -0.69559586 15.828107 3
-2.1145945 -0.74363649 15.369501 2
6.1889386 -0.68820435 15.960785 3
-1.9683727 -0.86337483 15.765515 1
-1.7056783 -0.86054558 15.786015 0.5
-1.4214441 -0.85711241 15.843565 0
3.9308796 -0.7510981 16.226374 0
4.4318223 -0.74426216 16.368374 1
4.5294189 -0.74329239 16.194496 1
5.1976233 -0.72709101 16.292692 2
6.1507688 -0.70518613 16.410786 3
-2.0986924 -0.76012975 15.776431 2
6.1730976 -0.69501704 16.161007 3
-1.7563995 -0.85524398 16.224314 1
-1.2527722 -0.85104108 16.153067 0
-1.0943125 -0.84451318 16.378948 0
3.5641813 -0.752684 16.664961 0
3.7096362 -0.75361639 16.520958 0
4.2499928 -0.7433427 16.61504 1
5.9899054 -0.70665842 16.770014 3
6.0790482 -0.70776278 16.615524 3
-2.0746927 -0.78217506 16.171671 2
9.6798964 -0.28304502 17.070383 6
-7.2574039 -0.28513077 15.84559 7
9.7571201 0.01984901 17.096972 7
-7.2190576 0.019192966 15.824323 8
-1.6170884 -0.85389113 16.489464 1
-1.4915272 -0.84742403 16.646252 1
-0.70141208 -0.83364201 16.812534 0
3.1702623 -0.75496012 16.988499 0
3.3992777 -0.75432646 16.817072 0
3.8680739 -0.74534732 17.036879 1
4.0755134 -0.7439782 16.826805 1
5.7941136 -0.70797694 17.117411 3
-2.0526628 -0.81127936 16.561766 2
3.0269244 -0.75539488 17.078278 0
7.2093787 -0.65393656 17.083775 4
-1.2856675 -0.84097368 16.895727 1
-0.54847014 -0.82939577 16.939028 0
-0.21576488 -0.82427979 17.184288 0
2.9104793 -0.75945967 17.159508 0
3.5506926 -0.74728972 17.301811 1
3.6183143 -0.74510795 17.241152 1
4.2924871 -0.73407996 17.521437 2
4.4458551 -0.73256379 17.370609 2
5.4801822 -0.71331078 17.598223 3
5.651413 -0.71398193 17.393606 3
-2.0365934 -0.78473306 16.933554 2.4000001
-1.9252676 -0.84528047 17.113152 2
-1.0611728 -0.83225113 17.106207 1
2.2549543 -0.76683897 17.426138 0
2.5866179 -0.75928736 17.295761 0
2.8722901 -0.75624281 17.163849 0
3.3960242 -0.74636567 17.394991 1
6.9294586 -0.65562963 17.602716 4
-0.86305988 -0.82977295 17.297045 1
0.63062823 -0.80305243 17.521408 0
0.95670998 -0.80661029 17.580067 0
1.3748552 -0.79569238 17.59565 0
1.7714343 -0.78225076 17.551159 0
4.1105604 -0.73575723 17.678164 2
5.0711927 -0.71777093 18.060177 3
5.2792397 -0.7150383 17.833174 3
-1.8616022 -0.80161554 17.277281 2.3333333
-1.5343968 -0.8081975 17.3416 2
-0.60738134 -0.82157916 17.472408 1
-0.36332786 -0.81379735 17.613544 1
2.0575171 -0.77234817 17.485186 0
2.546279 -0.75354862 17.796085 1
2.8953376 -0.74997693 17.662537 1
3.8364563 -0.73916233 17.889236 2
5.11025 -0.71270132 17.977165 3
5.2638068 -0.71190232 17.820072 3
6.7146897 -0.66324669 18.029972 4
6.7841606 -0.65939599 17.878473 4
0.94533074 -0.79956752 18.030289 1
1.2815294 -0.79065049 18.048052 1
3.7216048 -0.74174798 17.974398 2
4.6832528 -0.72348022 18.417648 3
4.9289956 -0.71963954 18.197569 3
1.719929 -0.77727777 18.01469 1
2.140902 -0.76219887 17.917496 1
3.0442581 -0.74353802 18.288158 2
3.3357131 -0.74107826 18.160307 2
3.6235256 -0.74059737 18.021067 2
4.7781572 -0.7206012 18.324186 3
6.6710334 -0.67097729 18.200367 4
2.0916505 -0.76281857 18.580666 2
2.4670532 -0.75065476 18.470905 2
2.8794348 -0.74552763 18.349981 2
4.1951261 -0.72657776 18.741091 3
4.4407873 -0.72358179 18.574791 3
6.1793904 -0.68975335 18.95356 4
1.2490979 -0.78918511 18.68758 2
1.7213883 -0.77470767 18.651207 2
3.3752751 -0.73478407 19.136917 3
3.6836333 -0.73252094 19.014271 3
4.0275574 -0.72896105 18.842909 3
6.0076523 -0.69229305 19.125927 4
2.4136515 -0.75099802 19.425339 3
2.8437624 -0.74182713 19.309879 3
3.212708 -0.73675174 19.195066 3
5.3252864 -0.70023704 19.680145 4
5.6000237 -0.6979264 19.484459 4
1.5848802 -0.77305979 19.561981 3
2.0613914 -0.75868618 19.489885 3
4.8956752 -0.70812511 19.981546 4
5.133522 -0.70495909 19.832752 4
7.5673165 -0.5975458 20.221029 5
4.0996022 -0.7194069 20.384624 4
4.3756862 -0.71682465 20.272337 4
4.7140198 -0.71334183 20.111816 4
3.1457992 -0.72970915 20.667461 4
3.5226932 -0.72628421 20.581499 4
3.8698297 -0.72333115 20.480949 4
6.8916025 -0.617235 20.991804 5
7.1554236 -0.46767384 20.890694 5.5
1.1672558 -0.77698833 20.972843 4
1.5001128 -0.76907974 20.96571 4
1.9756672 -0.75472599 20.901337 4
2.2927775 -0.74717855 20.854874 4
2.8242612 -0.73469502 20.740234 4
6.7408023 -0.5546065 21.274414 5.25
-6.9831395 2.670419 20.763046 15
-7.1582961 2.345166 20.964869 14
-6.944078 2.3866708 21.481754 14
-6.9411483 2.7815433 21.463207 15
4.6570392 -0.69887853 22.850733 5
-6.8092942 0.86497635 21.955978 10
-6.7993169 1.2530586 21.965029 11
-6.7988706 1.645131 21.974775 12
-6.8262191 2.0450866 21.983267 13
-6.9297185 2.423981 21.738968 14
-6.8205209 2.4402008 21.949387 14
-6.9237885 2.8205073 21.700678 15
-6.8048358 2.8419054 21.938135 15
3.621839 -0.71603674 23.147755 5
4.2257476 -0.70848483 23.021416 5
4.4343009 -0.70190805 22.918186 5
-6.7241006 0.49030975 22.280725 9
-6.7504182 0.88039249 22.240223 10
-6.7437053 1.2774928 22.288052 11
-6.7522206 1.6676164 22.216423 12
-6.7492929 2.0678959 22.220844 13
-6.7470393 2.4747279 22.232201 14
-6.738028 2.8758576 22.183956 15
2.1184473 -0.747747 23.419231 5
2.4591298 -0.73878682 23.361351 5
3.4717216 -0.7190482 23.185587 5
-6.7291026 0.89659917 22.503616 10
-6.7255187 1.31071 22.669483 11
-6.7301421 1.7111254 22.613499 12
-6.728457 2.1281359 22.66881 13
-6.7203212 2.5380516 22.638643 14
-6.7160916 2.9551411 22.618763 15
0.1623466 -0.78667128 23.351559 5
0.39046383 -0.78248525 23.386772 5
-6.7020326 0.92918134 23.00827 10
-6.6959825 1.3477751 23.091537 11
-6.702354 1.7634732 23.079494 12
-6.6990571 2.1856775 23.092243 13
-6.6946263 2.6141698 23.107456 14
-6.6868339 3.041625 23.083864 15
-6.6747184 0.94802833 23.301647 10
-6.6759963 1.7916152 23.333466 12
-6.6722541 2.6446199 23.301182 14
-6.8113084 2.3200645 23.912216 13
-6.807487 2.7671492 23.890934 14
-6.7968831 3.2240365 23.894745 15
-6.7830014 2.3836966 24.349651 13
-6.7688603 2.8383863 24.31468 14
-6.7753539 3.3060195 24.304279 15
-6.9968572 1.0463394 24.515175 10
-6.9535108 1.5085887 24.587029 11
-6.9669871 1.9719292 24.584957 12
-6.7321687 2.4962401 25.102333 13
-6.7363992 2.9772675 25.087776 14
-6.7306199 3.4408247 24.96744 15
-6.7127919 3.4742537 25.133415 15
-6.7067809 2.546874 25.43515 13
-6.7034402 2.5707765 25.585457 13
-6.7068048 3.0501328 25.49213 14
-6.69842 3.5567801 25.519127 15
-6.8196836 1.6142902 25.705986 11
-6.689878 1.6268948 25.894608 11
-6.8855481 2.1089287 25.695354 12
-6.6968331 2.1196616 25.883228 12
-6.6905055 2.6202726 25.897892 13
-6.6838975 3.1196051 25.868649 14
-6.6750302 3.628103 25.85535 15
6.2191658 -0.64364421 28.170265 6
-6.5928712 2.2590747 26.963938 12
-6.613256 2.807909 27.070908 13
-6.6225958 3.3273561 26.963928 14
-6.6197696 3.854341 26.886509 15
-6.6205773 3.8765111 26.982471 15
6.0522614 -0.65859938 28.464842 6
6.5118947 -0.64676362 28.246151 6
1.0027239 -0.7567578 29.147785 6
-6.4356718 3.1823509 29.319298 13
-6.4543543 3.7919381 29.320549 14
-6.4641147 4.4068894 29.304821 15
-6.2930274 3.8128181 32.860783 13
-6.2996883 3.849479 33.057793 13
-6.5499654 4.5625863 32.900177 14
-6.3579941 4.5635152 32.968296 14
-6.5110154 5.3055081 32.92831 15
-6.3537903 5.3101068 33.000385 15
-6.2653298 3.9534452 33.630821 13
-6.2495923 4.6616383 33.452457 14
-6.2580924 4.7046709 33.646271 14
-6.2434134 5.4002676 33.393711 15
-6.2391558 5.4899697 33.748714 15
-7.0826612 2.516711 19.869598 15.06325
-7.0683303 2.5634766 20.209248 15.064
-7.0647092 2.5886052 20.37999 15.0645
-7.0373082 2.6559613 20.842945 15.0655
-7.0373473 2.6935186 21.073116 15.066
-6.9397731 2.256918 23.709057 13.071
-6.9135385 2.7214615 23.82394 14.07125
-6.9118409 3.1750383 23.805357 15.07125
-7.1793818 0.98938882 24.283691 10.0715
-7.1276155 1.4407854 24.275768 11.0715
-6.9154716 2.3222599 24.172028 13.07175
-6.8935323 2.8016171 24.297195 14.072
-6.8940597 3.2691519 24.2833 15.072
-7.0993352 1.0034246 24.537395 10.072
-7.1108966 1.4710059 24.607147 11.072
-6.8854747 2.3915524 24.655748 13.0725
-6.8765502 2.85814 24.626192 14.0725
-6.8803926 3.3350477 24.612055 15.0725
-7.1075616 1.504656 24.961014 11.0725
-7.0655208 1.5336422 25.284809 11.073
-6.8317819 2.1113832 26.156399 12.0745
-6.8360934 2.6179729 26.139671 13.0745
-6.8084111 3.1181493 26.077854 14.0745
-6.8100629 3.6353338 26.061394 15.0745
-6.793468 2.1576285 26.529474 12.075
-6.8119311 2.6796057 26.536907 13.075
-6.7997794 3.1966705 26.495022 14.075
-6.8056998 3.7270479 26.47933 15.075
-6.7531075 2.2708583 27.397701 12.076
-6.7758813 2.8195307 27.411636 13.076
-6.7661881 3.3626213 27.369354 14.076
-6.7627301 3.9142606 27.336727 15.076
-6.740479 2.3361561 27.884636 12.0765
-6.7435737 2.8924575 27.866394 13.0765
-6.7427239 3.4522848 27.836336 14.0765
-6.7475829 4.0217872 27.815395 15.0765
-6.730083 2.976541 28.373245 13.077
-6.7226176 3.548667 28.330074 14.077
-6.7283854 4.1335497 28.309185 15.077
-6.6938882 4.2466478 28.810844 15.0775
-6.7182546 3.0682745 28.919079 13.0775
-6.706449 3.6549249 28.865685 14.0775
-6.5192628 3.1998141 29.767149 13.0785
-6.5257559 3.817826 29.743202 14.0785
-6.5237708 4.4394264 29.702744 15.0785
-6.5036988 3.3100517 30.404816 13.079
-6.4848981 3.9354138 30.328045 14.079
-6.4821668 4.574502 30.28335 15.079
-6.6097445 3.4809322 31.336035 13.0795
-6.5987468 4.1413932 31.270285 14.0795
-6.5862041 3.6059167 32.048508 13.08
-6.4674697 4.0363359 34.473137 13.0815
-6.2251945 4.5344119 37.241974 13.083
-6.2375607 5.085885 40.19371 13.084
-6.0867066 5.7457423 43.71648 13.085
-6.2011256 5.1041713 46.538368 12.0855
94.597885 4.9897256 13.224886 0.5
94.595566 5.0014572 13.035562 1
94.568665 4.9909325 12.719381 1.5
94.524742 4.944562 12.16918 2
94.557327 4.8154812 12.043558 1
94.546898 4.8495302 11.925838 1.5
94.542931 4.8623118 11.656021 2
94.495003 5.0186238 11.470626 3.5
102.38902 5.4194827 24.708998 6
94.364128 4.70683 21.108582 4
102.47762 5.432312 24.462868 6
95.681694 4.789608 21.352129 4
95.323441 4.771142 21.279839 4
94.892876 4.7466254 21.183187 4
94.544128 4.7222595 21.122833 4
102.61469 5.4503202 24.118103 6
102.86697 5.4770107 23.623669 6
103.02384 5.4917293 23.349596 6
103.17462 5.5079494 23.020172 6
96.173462 4.8247433 19.779398 3
95.888527 4.8084316 19.754673 3
95.067329 4.7634573 19.578497 3
94.716972 4.7388406 19.494856 3
97.564896 4.8881125 19.769453 3
103.57375 5.5462308 22.207478 6
98.303543 4.9176974 19.633581 3
98.004761 4.9055748 19.701426 3
97.703506 4.8940916 19.74939 3
95.433784 4.7825098 18.679661 2
95.017616 4.758491 18.55368 2
91.527916 4.5157261 17.205097 3
91.481216 4.5124035 17.121359 3
103.61946 5.5586491 21.865906 6
98.551796 4.9308405 19.538105 3
103.74436 5.5694294 21.613663 6
101.5358 5.2626114 20.799469 5
99.03418 4.9792295 19.139284 3
98.75914 4.9766493 19.192379 3
97.878479 4.9055009 18.628319 2
97.537033 4.8880539 18.724094 2
92.445518 4.5807314 16.578402 2
103.91774 5.5880532 21.121143 6
101.98955 5.283525 20.45981 5
99.341011 5.351757 19.226845 5
99.175682 5.1589751 19.21454 4
98.682892 4.9975824 19.048191 3
99.121346 5.0037832 18.935963 3
98.121796 4.9190617 18.529234 2
97.291168 4.8726072 18.078655 1
104.14991 5.601532 20.805637 6
102.14861 5.3035083 20.10235 5
99.610664 5.1824045 18.930389 4
99.115906 5.035996 18.685928 3
98.611473 4.9483232 18.263697 2
97.840279 4.9008131 17.901455 1
97.197609 4.8688946 17.575657 0
104.33978 5.6098909 20.623138 6
102.22605 5.3300486 19.604662 5
99.707558 5.2041636 18.67458 4
99.094246 5.0719786 18.404192 3
98.960777 4.9835768 17.922569 2
98.837059 4.9692049 18.064936 2
98.268898 4.9316645 17.641785 1
98.102005 4.914063 17.782701 1
97.580261 4.8882093 17.440317 0
102.29985 5.3501406 19.195555 5
100.46535 5.205308 18.441286 4
100.225 5.2065358 18.509634 4
99.442078 5.1775312 18.092381 3.5
99.074066 5.1125717 18.078938 3
99.053368 5.0108619 17.695284 2
98.621826 4.9570131 17.358444 1
98.076218 4.9144945 17.170097 0
102.42206 5.3656101 18.841427 5
102.35579 5.3613248 18.951561 5
100.66026 5.2244902 18.102716 4
100.58919 5.2337375 18.01375 4
99.860199 5.1103005 17.754818 3
99.730515 5.1008859 17.915232 3
99.100525 5.1553941 17.704699 3
99.043488 5.0388246 17.500015 2
98.885719 4.9823985 17.051861 1
98.516266 4.9403071 16.799675 0
98.394096 4.9313312 16.926277 0
100.84952 5.2370896 17.82115 4
100.01168 5.1296816 17.457821 3
99.015045 5.0945044 17.098246 2
99.006065 5.0054159 16.81254 1
98.678886 4.9525113 16.602873 0
100.99792 5.2650208 17.267544 4
99.0187 5.1017504 16.700037 1.6666666
104.89849 5.66679 18.413837 6
100.2003 5.1715741 16.802177 3
99.689964 5.0976949 16.48089 2
98.952705 5.107985 16.060686 1
94.145897 5.0103021 14.325891 1
104.98318 5.6720438 18.14061 6
102.88073 5.4154611 17.301952 5
101.27774 5.2791424 16.705603 4
100.29327 5.1986504 16.278055 3
99.824928 5.1168361 16.055525 2
98.95565 5.1463418 15.658774 1
105.08879 5.6793084 17.705318 6
102.84734 5.4287271 16.835266 5
101.32301 5.2933965 16.278994 4
100.3373 5.2127891 15.929904 3
99.858368 5.1343665 15.706569 2
99.470131 5.0816903 15.41713 1
99.178047 5.1967597 15.417088 1.6666666
98.916222 5.0685382 15.335827 0
105.10398 5.6825809 17.455072 6
105.1325 5.6855106 17.212475 6
102.90569 5.4339042 16.540785 5
102.89518 5.4378548 16.352303 5
101.46666 5.2968373 15.890984 4
101.39954 5.3020701 15.850597 4
100.42255 5.2203908 15.527811 3
99.93541 5.1361976 15.47717 2
99.831871 5.1593738 15.199865 2
99.414391 5.1061192 15.049916 1
99.009819 5.2337379 14.888019 1.5714285
94.608063 5.0520926 13.247276 1.2
105.17141 5.6889014 16.892179 6
103.12386 5.4359503 16.101084 5
102.97591 5.4402361 16.066284 5
101.51675 5.2986889 15.690843 4
101.43545 5.3086801 15.413317 4
100.45248 5.2260156 15.200548 3
100.43681 5.2308626 14.982003 3
99.810768 5.170321 14.726668 2
99.571335 5.1652322 14.739473 1.6666666
99.114845 5.2476025 14.580413 1.8571428
98.879379 5.10075 14.48823 0
94.590485 5.0545254 12.808504 2
105.20872 5.6921773 16.495155 6
103.24146 5.4370575 15.752893 5
103.03066 5.4448838 15.537736 5
101.33361 5.3186865 15.116873 4
101.25268 5.325336 14.829467 4
100.36216 5.239399 14.624828 3
99.824432 5.1683187 14.525879 2
99.665512 5.18606 14.283867 2
99.130013 5.2295876 14.242155 1.75
98.976753 5.2109051 14.056093 1.4
94.495979 4.8778315 12.31722 1.25
105.25128 5.6946292 16.100746 6
103.22601 5.44067 15.325394 5
101.19557 5.3286285 14.580742 4
101.10509 5.332778 14.345244 4
100.18701 5.2523589 14.203835 3
100.02255 5.259872 13.877544 3
99.518517 5.1877689 13.799623 2
99.079224 5.2558742 13.75515 2.1428571
98.868774 5.1468782 13.457626 1
94.830521 4.7511826 12.028875 0
94.54287 4.9184399 11.992283 2
94.182289 4.7166147 11.91399 1
105.23141 5.6957893 15.663232 6
103.25338 5.4408364 14.934497 5
103.12193 5.4444032 14.721313 5
100.96846 5.3371949 14.056256 4
100.82251 5.3409271 13.801691 4
99.110382 5.2487712 13.315138 2.4000001
98.841995 5.2190166 13.109252 2
95.488251 4.7895837 11.745681 0
95.166428 4.7695227 11.855402 0
94.612869 4.8926501 11.629124 2.2
94.49231 5.0235696 11.510109 3.5
98.523338 4.9553671 12.499502 0
98.412186 4.9486456 12.390049 0
105.26473 5.6962252 15.23681 6
103.14426 5.442524 14.454229 5
100.71567 5.3422627 13.612098 4
99.773651 5.273067 13.15959 3.2
99.29921 5.165328 13.096478 2
98.940674 5.2096181 12.726811 2.4000001
96.318596 4.8339648 11.60648 0
96.000053 4.8173909 11.635686 0
95.685402 4.8007555 11.692492 0
95.255028 4.7800474 11.347513 1
94.987518 4.7659121 11.450294 1
94.431953 4.738358 11.044916 2
98.283691 4.9417543 12.281492 0
97.978775 4.9231591 12.057687 0
97.640701 4.9054799 11.878062 0
97.317787 4.8863974 11.745698 0
105.23532 5.6955838 14.923689 6
105.20007 5.6946073 14.691729 6
103.03006 5.4426489 14.078968 5
102.86786 5.443707 13.804475 5
100.48392 5.3265147 12.891915 4
99.713516 5.2267542 12.795349 3
98.763092 5.0609255 12.256952 1.5
97.509216 4.8992586 11.824568 0
97.289131 4.887496 11.749989 0
96.107506 4.825696 11.164719 1
95.68856 4.8033152 11.22604 1
95.008804 4.772264 10.798429 2
94.744637 4.7565322 10.894548 2
93.9543 4.7072544 10.254406 3
98.20385 4.9365129 11.637894 1
105.16085 5.6928892 14.383627 6
102.62337 5.4417887 13.329871 5
100.51267 5.316617 12.73081 4
100.46214 5.3036108 12.459633 4
99.682983 5.1612325 12.036057 3
99.413605 5.1680112 11.933138 3
98.761238 5.067379 11.875845 2
98.480896 4.9583225 11.861629 1
98.160774 4.9376664 11.632301 1
97.800262 4.9166579 11.441243 1
97.422394 4.8961453 11.301785 1
97.052284 4.8761091 11.210156 1
95.891975 4.8205352 10.585726 2
95.549561 4.8016524 10.643834 2
95.279602 4.7863278 10.70569 2
94.369179 4.7379842 10.104479 3
94.11422 4.7192841 10.192261 3
104.95122 5.6876073 13.842844 6
100.43224 5.2780638 12.039384 4
99.415817 5.1293483 11.58826 3
98.725075 4.9941301 11.387412 2
98.524696 4.9624348 11.127855 2
97.153603 4.8863077 10.606088 2
96.821274 4.8691759 10.565109 2
96.433922 4.8485956 10.547081 2
96.098457 4.8314109 10.563101 2
95.215286 4.7897463 9.8477345 3
94.946815 4.7753706 9.9258747 3
94.671799 4.7563124 9.9915905 3
104.74096 5.680872 13.331228 6
101.9789 5.4307046 12.368845 5
101.83348 5.4243798 12.118861 5
100.44017 5.2633147 11.834446 4
100.2524 5.2531528 11.601044 4
99.939217 5.2483544 11.398215 4
99.436287 5.1144028 11.465141 3
99.289078 5.0933867 11.228706 3
98.356499 4.9530048 11.032763 2
98.00959 4.93295 10.861374 2
97.6633 4.9138231 10.73321 2
97.359543 4.8972549 10.647772 2
95.878365 4.8259001 9.7299919 3
95.489563 4.8047433 9.7893543 3
93.574959 4.6864772 8.8946171 4
93.256393 4.6617012 8.9937983 4
104.83971 5.6756983 12.899463 6
101.86237 5.4109993 11.812576 5
101.76996 5.4028392 11.590371 5
101.15466 5.4012127 11.353175 5
101.01074 5.4019833 11.329826 5
99.180801 5.059412 10.921275 3
98.959877 5.0321832 10.660112 3
98.729111 5.0042615 10.414129 3
97.022186 4.8869267 9.7250404 3
96.739899 4.8709702 9.6975403 3
96.318367 4.8487625 9.6942616 3
96.044724 4.8353543 9.7157879 3
94.371651 4.7469897 8.7067785 4
94.104485 4.7261038 8.7534657 4
93.836182 4.704958 8.8083897 4
101.63483 5.3970075 11.420027 5
101.34741 5.3981037 11.348448 5
100.17247 5.1814837 10.723202 4
100.00248 5.1631398 10.478275 4
98.596138 4.979095 10.22187 3
98.323456 4.9569745 10.053312 3
97.942902 4.9359493 9.9147549 3
97.55442 4.9136348 9.8032856 3
97.282402 4.9002275 9.7568979 3
95.011856 4.7837701 8.5376558 4
94.580971 4.7606678 8.6584578 4
101.59602 5.3647614 10.790272 5
99.857414 5.1455803 10.26603 4
99.651337 5.1194563 9.9752846 4
95.856415 4.8299704 8.3998089 4
95.511971 4.8122659 8.4530582 4
95.169167 4.7928133 8.5069504 4
101.42002 5.3459721 10.429181 5
101.2654 5.3300552 10.148245 5
99.306297 5.0791202 9.568222 4
99.027893 5.0460396 9.2686405 4
96.765411 4.877748 8.3616018 4
96.443558 4.86134 8.3655128 4
92.288696 4.5988054 6.6114888 5
91.979065 4.5748682 6.6891289 5
101.16762 5.3190017 9.9642391 5
101.00937 5.3027959 9.7107944 5
98.717766 5.0068307 8.9455929 4
98.448997 4.9722323 8.6828823 4
98.069633 4.947154 8.5390673 4
97.754967 4.928441 8.4547386 4
97.214935 4.90063 8.3855991 4
96.927368 4.8857965 8.3642378 4
92.835884 4.6421394 6.5143299 5
92.526527 4.6183443 6.5729713 5
100.73793 5.2725439 9.2739344 5
100.47755 5.2459521 8.9246559 5
100.07561 5.2390509 8.8760014 5
99.592896 5.2279968 8.8115368 5
98.798668 5.168119 8.2826424 5
93.219269 4.6718259 6.4573097 5
100.50772 5.243165 8.8835602 5
99.409599 5.188807 8.3674164 5
99.101837 5.1598978 8.0991364 5
98.64212 5.1422153 8.0319958 5
98.48484 5.1117268 7.7348175 5
94.738762 4.7811761 6.3003168 5
94.131104 4.7425289 6.3893309 5
103.0978 5.5576925 9.1541729 6
102.19787 5.525825 8.7755899 6
101.86736 5.5185437 8.7704725 6
95.167564 4.8044271 6.2187519 5
98.738785 5.3733435 7.7267246 6
102.93277 5.5412598 8.799612 6
102.65222 5.5338893 8.7482014 6
102.41519 5.5299335 8.7670927 6
100.1369 5.4268146 7.7872066 6
98.503746 5.068584 7.2361417 5
98.48629 5.0304489 6.8102226 5
89.973923 4.5587091 3.3095932 6
98.338814 4.9743094 6.2370882 5
89.982445 4.536418 2.8510084 6
89.939087 4.4759636 1.7289886 6
89.9048 4.4399014 1.0797834 6
89.974205 4.420682 0.60246849 6
90.439461 4.443181 0.34229183 6
90.942932 4.4724293 0.17241001 6
-7.2254677 -0.64528364 14.575631 6
-7.4188786 -0.34875062 14.392502 7
-7.4323406 -0.035656616 14.653623 8
-7.2792473 -0.33779025 15.144647 7
-7.3858757 -0.033090025 15.216017 8
-7.4158039 0.27616224 15.210076 9
-7.1810122 -0.030391561 15.553357 8
-7.2084255 0.27250907 15.757792 9
-7.020359 2.4702113 20.597485 15
-6.9981699 2.5587323 21.230324 15
-6.8130503 1.1353809 21.878803 11
-6.8393688 1.5050786 21.886543 12
-6.8176003 1.8749675 21.902992 13
-6.827384 2.2510684 21.898069 14
-6.9731646 2.6545763 21.863806 15
-6.7740688 1.2207628 22.941727 11
-6.7638969 1.6292796 23.124678 12
-6.763031 2.4667504 23.358345 14
-7.0463533 2.2559431 24.513678 13
-6.8350811 2.6949677 24.643394 14
-6.8304558 3.1277909 24.560398 15
-6.8227949 2.2983685 24.965633 13
-6.8087683 2.8257835 25.394917 14
-6.8151808 3.2810638 25.316727 15
-6.1966658 5.6488414 43.721642 13
4.9622087 -0.77302021 9.8823681 4
8.017189 -0.63618731 9.9974613 5
5.2965388 -0.76261711 10.120876 4
8.1844807 -0.62291843 10.341719 5
5.9395986 -0.73768961 10.715678 4
8.398735 -0.61305344 10.694176 5
6.0438623 -0.72315246 10.940063 4
6.3508234 -0.73028189 11.08543 4
6.6216865 -0.73947167 11.196846 4
1.3149464 -0.80435729 10.685199 3
5.9755931 -0.71218091 11.009548 4
4.1597996 -0.77978247 11.19475 3
4.4217873 -0.77230072 11.373707 3
6.7028785 -0.72268641 11.470509 4
4.7768812 -0.76233691 11.653416 3
5.0184269 -0.75676918 11.858988 3
6.7726579 -0.70060903 11.8168 4
1.705539 -0.79577529 11.584183 2
5.1513758 -0.75430232 11.981378 3
5.4082704 -0.74971539 12.238314 3
4.3159442 -0.76863211 12.521076 2
5.6160955 -0.74019992 12.534409 3
5.7136693 -0.73558342 12.687223 3
4.6606102 -0.75874871 12.883512 2
4.1589737 -0.76892573 13.31549 1
3.8697751 -0.77746093 13.714115 0
4.33676 -0.76181358 13.554517 1
4.5161333 -0.75838554 13.814591 1
5.1749024 -0.74513406 13.615553 2
5.2508254 -0.74476528 13.741867 2
6.2267804 -0.69962335 13.943531 3
6.1707225 -0.6968146 13.870812 3
3.9618113 -0.77307451 13.846619 0
4.1228929 -0.76941055 14.094744 0
4.659832 -0.75331479 14.08934 1
5.4050303 -0.73960704 14.091345 2
6.3134556 -0.70455599 14.054198 3
6.3963609 -0.70590645 14.239142 3
4.3001556 -0.76626986 14.427484 0
4.3694625 -0.76375771 14.60326 0
4.8271365 -0.74830991 14.49025 1
5.5251641 -0.73825562 14.388655 2
5.5750375 -0.73621428 14.568165 2
6.5152006 -0.69980806 14.785651 3
-1.9459455 -0.89265132 14.566288 1
4.4704037 -0.76118994 14.93897 0
4.9353604 -0.74482203 14.863514 1
5.6630392 -0.73333859 14.966531 2
6.5398684 -0.69664598 15.028698 3
-2.9450655 -0.81361985 14.458335 3
-2.7970438 -0.79151922 14.378085 3
-2.0050478 -0.89333153 14.774722 1
-1.5161884 -0.88497579 14.814366 0
4.5367937 -0.75188506 15.235538 0
5.0085988 -0.74114233 15.322905 1
5.6936946 -0.72853678 15.323642 2
-7.131444 -0.64087564 14.374103 6
-3.1873417 -0.85175866 14.564858 3
-2.1214201 -0.7851935 14.820148 2
-7.3159924 -0.34432876 14.436407 7
-7.233532 -0.34049466 14.509157 7
-7.2744923 -0.035282858 14.535455 8
-2.067817 -0.89096934 15.1395 1
-1.5993862 -0.88602793 15.192362 0
4.5602407 -0.74489069 15.64944 0
5.0195751 -0.73823768 15.686445 1
5.7031202 -0.72586119 15.742863 2
-7.2120924 -0.6421755 14.765743 6
-2.1023264 -0.76754814 15.14889 2
-7.2466812 -0.33903748 14.776218 7
-7.4131203 -0.035224423 14.741229 8
-2.0766542 -0.8829987 15.579924 1
-1.6308239 -0.88467461 15.599833 0
4.5272112 -0.74271172 16.040276 0
4.9857264 -0.73655194 16.124781 1
5.6532416 -0.7209447 16.140955 2
6.5203719 -0.68583286 16.115162 3
-7.0761614 -0.77623433 15.171983 5.5
-2.0773835 -0.75381428 15.564865 2
6.0750394 -0.62857056 16.334354 3
6.2236695 -0.64759511 16.272955 3
-7.2327042 -0.33588031 15.156 7
-7.4018431 -0.033667989 15.106258 8
-2.0657973 -0.87940234 15.980039 1
-1.601197 -0.88094717 16.042679 0
4.4229522 -0.74104536 16.493498 0
4.9084101 -0.73504585 16.50436 1
5.5660844 -0.71790427 16.573395 2
-7.1670094 -0.63232082 15.537826 6
-2.0765145 -0.75212598 15.962262 2
6.1497331 -0.64235204 16.513565 3
6.3858323 -0.68043143 16.758595 3
-7.2019787 -0.33168897 15.6538 7
-7.1970253 -0.029661262 15.698661 8
-2.0166759 -0.87558681 16.41588 1
-1.5052521 -0.87440419 16.458694 0
4.2976413 -0.74037546 16.823092 0
5.4632773 -0.71805453 16.944111 2
-7.1588421 -0.6296432 15.976408 6
-2.0619557 -0.75539583 16.408775 2
6.2959242 -0.67788279 17.030033 3
-7.1805849 -0.32911494 15.987768 7
-1.9100363 -0.87150449 16.80002 1
-1.8284385 -0.86686587 16.998188 1
-1.4012287 -0.86649078 16.733147 0
4.0558958 -0.73927748 17.249849 0
4.1602926 -0.73845387 17.080063 0
5.289959 -0.71888727 17.386818 2
5.3646002 -0.71861905 17.219831 2
6.2386012 -0.68687439 17.405079 3
-2.0496986 -0.76876032 16.767879 2
6.2289944 -0.67773575 17.238705 3
3.6400642 -0.74074334 17.747517 0
3.7966149 -0.7404328 17.585966 0
4.332756 -0.73776537 17.7164 1
5.0993929 -0.72018468 17.746065 2
6.1696835 -0.70078677 17.81078 3
3.1394215 -0.74242181 18.125721 0
3.4352555 -0.74107814 17.919422 0
4.0114546 -0.74084556 18.09481 1
4.1514482 -0.74041963 17.952257 1
4.7888975 -0.72360998 18.207867 2
4.9184999 -0.72208089 18.031975 2
5.8775201 -0.70264524 18.342112 3
2.2913499 -0.75893396 18.518543 0
3.4378724 -0.74383008 18.545132 1
3.7480986 -0.74259007 18.329603 1
4.3961668 -0.72761458 18.637554 2
4.5738435 -0.7257244 18.455524 2
5.7091765 -0.7060647 18.611656 3
2.3965294 -0.75314486 18.471766 0
2.6797616 -0.74812454 18.363043 0
2.9716921 -0.7448321 18.22715 0
0.99582678 -0.78859437 18.602072 0
1.4441984 -0.77672875 18.631157 0
1.8267593 -0.77177572 18.621677 0
2.1416426 -0.76432633 18.56568 0
2.7087057 -0.75366074 18.914461 1
2.9989433 -0.74852437 18.786276 1
3.2560282 -0.74526924 18.654774 1
3.9655242 -0.73240846 18.992548 2
4.1826115 -0.72900969 18.817417 2
5.4137669 -0.70775682 18.968786 3
7.1165128 -0.66986382 19.164104 4
1.9099277 -0.77332836 19.138428 1
2.1453924 -0.76434398 19.077522 1
2.5075257 -0.75672054 18.982174 1
3.3707156 -0.73780841 19.333994 2
3.7534695 -0.73466355 19.132298 2
5.00665 -0.71216846 19.385014 3
5.2120137 -0.71197647 19.210028 3
6.9152756 -0.6649099 19.34882 4
1.4043664 -0.77237701 19.118416 1
1.7235459 -0.76422 19.100502 1
6.5847292 -0.65478843 19.585972 4
2.5254831 -0.75150174 19.651236 2
2.896874 -0.74479884 19.534622 2
3.1728764 -0.73959494 19.422033 2
4.5814772 -0.71755689 19.732952 3
4.8177495 -0.71734798 19.57604 3
0.086065054 -0.79806942 19.540773 2
6.3217096 -0.65653402 19.877369 4
6.4236832 -0.64879614 19.671505 4
1.9238416 -0.76742971 19.790009 2
2.1189983 -0.76237088 19.755381 2
3.8147774 -0.72626996 20.185295 3
4.124166 -0.72104615 20.01195 3
6.1436224 -0.67339998 20.248692 4
1.720961 -0.75973547 19.744345 2
2.8803949 -0.73715657 20.513683 3
3.3012738 -0.73158228 20.386982 3
3.6096642 -0.72782511 20.270725 3
5.7472639 -0.68327719 20.660793 4
5.9097676 -0.67906028 20.500002 4
2.0929821 -0.75404757 20.688526 3
2.4850893 -0.74506903 20.613976 3
5.2763805 -0.68992108 21.013018 4
5.5163713 -0.68510896 20.827507 4
0.046261191 -0.78289872 20.433067 3
1.6817489 -0.74789268 20.628605 3
1.93969 -0.74442643 20.622717 3
4.6100059 -0.70495081 21.462193 4
4.8553281 -0.69984645 21.314022 4
7.7054257 -0.58556318 21.674595 5
3.7775381 -0.72008514 21.838413 4
4.0112882 -0.71447194 21.73381 4
4.3562803 -0.71006066 21.595728 4
7.479084 -0.59403044 21.982992 5
-7.0264254 2.4775488 20.640505 15
2.5388398 -0.74217963 22.152079 4
2.7535839 -0.73624778 22.097572 4
3.1746845 -0.73013467 22.016945 4
3.5856729 -0.72324485 21.901718 4
0.37671065 -0.76354867 21.948336 4
0.78577989 -0.75603288 22.015053 4
1.1455705 -0.74805456 22.040134 4
1.943134 -0.73461258 22.055441 4
7.2718334 -0.6063205 22.321352 5
-6.9929333 2.5733249 21.331629 15
2.3413846 -0.74633884 22.182837 4
7.1013589 -0.62125355 22.658251 5
-6.9823151 2.6177816 21.625774 15
6.4827628 -0.63767737 23.199089 5
6.7378645 -0.62834966 22.948292 5
-6.8725128 1.1499614 22.003252 11
-6.8861828 1.5201682 21.985901 12
-6.8676901 1.9872767 21.995199 13.25
-6.8836632 2.5055068 21.99902 14.6
-6.7981358 2.6790693 22.206808 15
-6.791152 1.1804659 22.452991 11
-6.8002262 1.5590875 22.447651 12
-6.7937927 1.9414595 22.454931 13
-6.7910376 2.3258088 22.439814 14
-6.7655354 2.3495772 22.62064 14
-6.7849331 2.718205 22.444731 15
-6.7676287 2.7315931 22.538975 15
5.583045 -0.66822177 23.921047 5
5.7916317 -0.66350549 23.801367 5
-6.7737074 1.2054944 22.764681 11
-6.7643108 1.2223132 22.967382 11
-6.7853823 1.5884876 22.735893 12
-6.7694836 1.6033144 22.885647 12
-6.7815628 1.9746127 22.721148 13
-6.7721176 1.9940703 22.876255 13
-6.7952499 2.3811095 22.793736 14
-6.7739439 2.3831096 22.826454 14
-6.7664452 2.7884815 22.855488 15
4.7097645 -0.68587637 24.316948 5
5.012701 -0.68145317 24.214058 5
5.3667593 -0.67246813 24.027876 5
-6.7635603 1.2326832 23.086908 11
-6.7643309 1.6416081 23.233751 12
-6.7632103 2.0389562 23.215567 13
-6.760169 2.4465642 23.236828 14
-6.75072 2.8517706 23.213108 15
4.4897909 -0.69195491 24.419792 5
2.2085648 -0.70515817 24.503717 5
2.5035219 -0.72905588 24.841272 5
-7.0923452 2.2033341 24.111732 13
-6.8798418 2.57605 23.915577 14
-6.8693352 2.5991664 24.060795 14
-6.8658829 3.0274668 24.026777 15
-7.0294466 2.2436678 24.441912 13
-6.8833323 2.2533722 24.620209 13
-6.851922 2.6600473 24.429863 14
-6.8457603 2.8801153 24.433563 14.5
-6.8478813 3.1081367 24.448593 15
-6.8551311 2.2592263 24.680702 13
-6.8421679 2.2939298 24.922314 13
-6.8229504 2.7411425 24.91395 14
-6.8234816 3.1948712 24.895035 15
-6.8150024 2.3467443 25.289288 13
-6.8044691 2.8033199 25.273979 14
-6.8009834 3.2719996 25.283554 15
7.5902004 -0.59107274 29.716911 6
6.9851313 -0.6033451 29.980946 6
7.387989 -0.5999887 29.920719 6
1.1267004 -0.67882854 30.095016 6
-6.1067176 5.6571264 43.777977 13
-5.9428668 5.6478391 43.753632 13
-7.4840078 -0.024109131 15.277246 8.0459995
-7.4796247 0.28713316 15.274529 9.0459995
-7.0735073 2.3657005 19.7146 15.06
-7.0607004 2.3963647 19.98312 15.06075
-7.0469589 2.4420748 20.353138 15.06175
-7.0101357 2.5001748 20.821789 15.063
-7.0217619 2.533112 21.028934 15.0635
-6.7906876 2.89731 23.415302 15.069
-7.0858202 1.7294012 23.740326 12.069
-6.8719311 2.5304112 23.646095 14.06925
-6.8684597 2.9777603 23.766426 15.0695
-6.8077393 2.3969262 25.617191 13.0725
-6.7875404 2.8558798 25.571348 14.0725
-6.7940321 3.3293512 25.557606 15.0725
-6.7873306 2.9221067 25.930233 14.073
-6.7660255 3.434068 26.065342 15.07325
-6.7579145 3.0168014 26.45282 14.07375
-6.7408133 3.5476818 26.602533 15.074
-6.707427 3.1119692 26.981209 14.0745
-6.6854744 3.6301754 27.007828 15.0745
-6.6983824 3.1921916 27.399376 14.075
-6.7026081 3.7156227 27.377968 15.075
-6.6773748 3.8243432 27.870274 15.0755
-6.6763134 3.3817658 28.369183 14.076
-6.673173 3.9303973 28.333241 15.076
-6.6653309 3.4771991 28.848743 14.0765
-6.6428614 4.0317626 28.784451 15.0765
-6.6182785 4.1419621 29.265234 15.077
-6.4628153 4.1906896 29.543659 15.0775
-6.4374218 4.3162041 30.078529 15.078
-6.4954066 5.0194702 32.922058 15.08
-6.4328594 5.1848507 33.604927 15.0805
-6.3514643 5.8973994 40.10791 14.0835
-6.0654368 6.0213213 40.713943 14.084
-5.7472134 4.4615674 50.90897 11.0865
95.11718 4.9875298 18.889389 2
95.096909 5.1034498 18.853809 3
95.04863 5.076158 18.649221 2.5
94.076866 5.10954 17.743141 3
98.188515 5.0897741 17.186312 0
95.190903 4.7957921 22.434933 4
96.309662 4.8536806 22.551785 4
95.934097 4.8343067 22.532848 4
95.475754 4.8116722 22.472631 4
95.949554 4.8331847 21.035778 3
95.629288 4.8167167 21.003342 3
95.226257 4.796946 20.93071 3
94.964264 4.7811928 20.884113 3
96.30764 4.851788 21.044538 3
96.12793 4.8433809 21.037371 3
95.548683 4.814086 20.023493 2
95.265594 4.8001709 19.966751 2
103.28469 5.538332 23.211132 6
95.12719 4.7948694 19.923695 2
96.720375 4.8763051 20.026024 2
96.249329 4.8517218 20.063444 2
95.92701 4.8341951 20.059286 2
103.60852 5.5627151 22.710655 6
96.942192 4.8830462 20.015291 2
103.8312 5.5781579 22.377916 6
92.070564 4.5689468 17.678989 2
91.980148 4.5627823 17.473248 2
103.86234 5.5886869 22.065262 6
101.82864 5.3068676 21.07902 5
101.60605 5.3027844 21.168985 5
95.082947 5.0469465 18.801006 2.4285715
98.496437 4.9558964 19.422976 2
97.418571 4.9044223 19.184036 1
97.258217 4.9053841 19.199783 1
92.723419 4.6133471 17.405643 1
91.86528 4.5513558 17.206951 2
91.765457 4.540205 16.946823 2
102.06929 5.3194647 20.820217 5
98.686897 4.9734707 19.204655 2
98.621025 4.9908776 19.088442 2
98.062515 4.9343057 18.864067 1
93.164848 4.6429319 17.136766 0
92.515274 4.5948625 16.908119 1
91.734558 4.5388422 16.792871 2
102.21114 5.3305101 20.587181 5
99.012703 4.9944878 18.866964 2
98.432716 4.9492016 18.556124 1
98.300774 4.9431629 18.672285 1
92.991234 4.6283965 16.668711 0
90.594154 4.459816 15.77951 3
99.075195 5.1527619 18.783052 3
83.701782 4.2430158 13.23364 6
99.061325 5.017808 18.661396 2
98.624619 4.9663649 18.32662 1
98.219627 4.9389501 18.095646 0
98.066086 4.9284024 18.249468 0
92.916458 4.6228762 16.288279 0
92.719955 4.6269469 16.15626 0.5
91.634674 4.5292382 15.764126 2
90.584801 4.4564171 15.591001 3
90.601562 4.4569626 15.378471 3
99.524597 5.1382651 18.658012 3
99.113464 5.1419134 18.532207 2.75
90.344193 4.6028891 15.228202 4
88.525253 4.5301938 14.682423 5
83.84922 4.2552671 12.930422 6
98.824188 4.9835587 18.054411 1
98.455421 4.9529953 17.821815 0
92.8946 4.6211052 15.802426 0
91.669594 4.5317936 15.366875 2
90.660774 4.4609728 14.981953 3
102.47523 5.3893957 19.205284 5
99.46273 5.1641827 18.428137 3
99.171936 5.2566843 18.166485 3.3333333
90.404419 4.60742 14.904839 4
88.49807 4.5202141 14.340166 5
88.503464 4.5152664 14.067377 5
84.294571 4.2996502 12.605633 6
98.717422 4.9770246 17.359442 0
92.937706 4.6252289 15.413228 0
92.441811 4.5899105 15.223311 1
91.754929 4.5393524 14.958497 2
90.773201 4.4730816 14.621084 3
102.59967 5.4002337 18.843674 5
102.47981 5.3971996 18.994919 5
100.90167 5.258914 18.314789 4
99.998856 5.1631436 17.951017 3
99.005951 5.1134372 17.473307 1.6666666
90.456589 4.6061997 14.518205 4
88.486893 4.5051384 13.749458 5
84.359337 4.3016748 12.295448 6
84.170013 4.275867 12.0114 6
93.042892 4.6345749 15.010089 0
92.508118 4.5945091 14.94753 1
92.578621 4.6000433 14.739607 1
91.880379 4.5509291 14.583263 2
90.891022 4.4811268 14.242504 3
102.68108 5.4042711 18.672052 5
102.68139 5.4106054 18.470707 5
101.00359 5.2706332 17.97048 4
100.16212 5.1699505 17.638136 3
99.487633 5.1117678 17.314449 2
99.035065 5.1314497 17.24156 1.6666666
98.964188 5.0792441 17.025375 1
90.444443 4.5859056 14.017896 4
88.482773 4.4936185 13.355072 5
84.105476 4.2618608 11.642066 6
93.186401 4.6453142 14.646791 0
92.710701 4.6122761 14.455334 1
92.049782 4.5677137 14.226799 2
91.062096 4.4938951 13.833696 3
102.74159 5.4179754 18.160631 5
101.17178 5.2784719 17.552217 4
100.22888 5.185935 17.226227 3
99.691216 5.1036744 17.051893 2
98.958717 5.0985069 16.764875 1
90.436356 4.572505 13.741044 4
90.421448 4.5615587 13.566923 4
88.514671 4.4855585 12.959952 5
84.362862 4.2848444 11.386932 6
93.391991 4.6618295 14.29043 0
92.909859 4.6312609 14.129841 1
92.238602 4.5804501 13.856317 2
91.235397 4.507122 13.505297 3
102.83138 5.4254756 17.766628 5
101.31246 5.2834096 17.140249 4
100.25776 5.1995792 16.816748 3
99.7453 5.1161618 16.642447 2
98.93145 5.1245365 16.324606 1
90.413307 4.5393386 13.172651 4
88.709618 4.4997444 12.589514 5
84.762627 4.3218007 11.0891 6
84.182724 4.2588167 11.080303 6
93.780304 4.6901965 13.812563 0
93.650627 4.6823211 13.961737 0
93.145126 4.6495752 13.802468 1
92.483971 4.5996151 13.500052 2
91.538681 4.5340638 13.085841 3
91.381439 4.5185704 13.270285 3
105.0716 5.6901097 18.136951 6
102.91684 5.4315405 17.342712 5
101.28675 5.2932916 16.780481 4
100.29358 5.2069073 16.380623 3
99.810745 5.1186461 16.237812 2
99.755371 5.1287503 16.018688 2
98.91748 5.1334763 16.063395 1
98.906281 5.1360898 15.871824 1
90.393845 4.5105667 12.740248 4
88.89241 4.5101485 12.214551 5
84.325706 4.2648554 10.658564 6
94.014908 4.7096519 13.643055 0
93.575569 4.6844988 13.370347 1
93.425117 4.6714177 13.498857 1
92.776367 4.6231313 13.168771 2
92.649704 4.6129293 13.301921 2
91.74173 4.5497413 12.827681 3
90.395203 4.485034 12.343966 4
105.11352 5.6943135 17.770159 6
102.90282 5.4362569 17.058464 5
102.84756 5.4407797 16.804316 5
101.32693 5.2947927 16.549778 4
101.26608 5.3011937 16.309616 4
100.27574 5.2127056 15.926792 3
100.23019 5.2171693 15.815146 3
99.72966 5.1314125 15.735277 2
98.939827 5.1795793 15.449265 1.5
89.117523 4.5255671 11.865122 5
94.493011 4.7441454 13.33633 0
94.217087 4.7239232 13.499506 0
93.850395 4.7049956 13.157924 1
93.054611 4.6455531 12.914146 2
92.037537 4.5731072 12.512893 3
90.469101 4.477818 12.067449 4
105.1136 5.6979885 17.316357 6
102.86523 5.443038 16.471983 5
101.26261 5.3030758 15.91037 4
100.24989 5.2127118 15.535623 3
99.651413 5.1364164 15.405681 2
99.551285 5.1434913 15.210191 2
99.008774 5.2287064 15.083253 2.1666667
98.861069 5.1057959 14.897292 1
89.372467 4.544157 11.537558 5
98.592171 4.9758391 14.322914 0
93.527321 4.6844649 12.581484 2
93.273094 4.6629543 12.74129 2
92.366844 4.5973649 12.204423 3
90.81929 4.490345 11.50853 4
90.719933 4.4866104 11.654926 4
105.14713 5.7005663 16.914577 6
102.91223 5.4431143 16.121553 5
101.30741 5.2993369 15.639719 4
101.14776 5.3067141 15.375362 4
100.18068 5.2134738 15.226581 3
100.13163 5.2092323 14.933781 3
99.449265 5.140759 14.87396 2
99.140564 5.2822523 14.631402 3
98.858162 5.0901079 14.699057 1
95.05938 4.7804885 13.090815 0
94.74765 4.7614346 13.211884 0
94.284805 4.7382541 12.904066 1
99.051529 5.4214792 14.876502 4
98.46553 4.9652023 14.116176 0
98.217232 4.9417195 13.774469 0
95.951973 4.8284841 12.918136 0
95.56118 4.8080897 12.963394 0
93.756882 4.7001066 12.432234 2
92.870216 4.6399059 11.868609 3
92.641518 4.6205349 12.008799 3
91.019455 4.5027266 11.292714 4
105.17887 5.7023277 16.473871 6
102.96378 5.4413261 15.686449 5
101.08575 5.3057847 15.086734 4
100.97226 5.3080816 14.880277 4
99.988907 5.2149057 14.743951 3
99.077538 5.3371 14.398411 3.5
98.917786 5.2123456 14.167937 2.5
98.802902 5.0193467 13.982091 1
95.593025 4.8110213 12.959885 0
95.185181 4.7926235 12.808451 0.5
94.819214 4.7752337 12.680369 1
94.555779 4.7580862 12.778923 1
94.027359 4.7217741 12.306047 2
93.767097 4.7022505 12.435769 2
98.694557 4.9870758 13.653872 1
98.539902 4.9695363 13.42546 1
97.943817 4.9302363 13.548036 0
97.541443 4.9119444 13.294628 0
97.208237 4.8956165 13.140255 0
96.796127 4.8708587 12.995142 0
96.444221 4.8543272 12.938877 0
96.13311 4.8385324 12.917688 0
93.102074 4.6590672 11.740093 3
91.501083 4.5350957 10.863856 4
91.3405 4.5237079 10.991431 4
105.21228 5.7029233 16.032272 6
103.13594 5.4341068 15.276134 5
103.01922 5.4362726 15.164314 5
100.82213 5.3071275 14.544824 4
100.6581 5.3088694 14.337443 4
99.520119 5.2046871 13.919408 3
99.128006 5.2853632 13.73861 3.5
98.800407 5.0659676 13.855222 1.5
95.733307 4.8248959 12.459015 1
95.382675 4.8072534 12.519144 1
94.541107 4.7589417 12.104742 2
94.287857 4.7414732 12.196944 2
93.375015 4.680666 11.601951 3
93.258369 4.6716046 11.659202 3
90.232681 4.6014791 10.572016 5
98.408279 4.9611697 13.295759 1
98.104408 4.94205 13.038179 1
97.745499 4.9259329 12.832216 1
97.397636 4.9084716 12.673098 1
96.997864 4.8894458 12.54945 1
96.658882 4.8723922 12.478607 1
91.732468 4.5563183 10.746474 4
105.15793 5.7020617 15.670366 6
103.03453 5.4311051 14.787105 5
102.68961 5.4412084 14.83873 5
100.52264 5.308043 14.135604 4
100.32079 5.3048019 13.855925 4
99.540016 5.254015 13.584935 3.5
99.162521 5.2652779 13.529809 3.5
98.888222 5.1665897 13.321659 2.8
96.478638 4.8652258 12.463757 1
96.195381 4.8509951 12.44894 1
95.94297 4.8367033 12.44482 1
95.449951 4.8136053 11.873253 2
95.107277 4.7941136 11.941772 2
